# .PCD v0.7 - Point Cloud Data file format
VERSION 0.7
FIELDS x y z rgba
SIZE 4 4 4 4
TYPE F F F U
COUNT 1 1 1 1
WIDTH 1100
HEIGHT 1
VIEWPOINT 0 0 0 1 0 0 0
POINTS 1100
DATA ascii
0.16122347 -0.1062416 0.5607118 2039583
0.16401251 -0.10643987 0.56172872 2039083
0.16680154 -0.10663815 0.56274563 2105126
0.16959058 -0.10683642 0.56376255 1711665
0.17237961 -0.1070347 0.5647794 2039083
0.17516865 -0.10723297 0.56579632 2039083
0.1779577 -0.10743125 0.56681323 2105126
0.18074672 -0.10762952 0.56783009 1973540
0.18353577 -0.1078278 0.568847 1711915
0.18632481 -0.10802607 0.56986392 1907243
0.1892492 -0.10811086 0.5698517 2039333
0.19203466 -0.10830888 0.5708673 2039333
0.19482014 -0.1085069 0.5718829 1841954
0.19760559 -0.10870492 0.57289851 1841954
0.20039107 -0.10890295 0.57391411 2103343
0.20341162 -0.10887145 0.57285845 1841450
0.20618995 -0.10906896 0.57387149 1906991
0.20896827 -0.10926647 0.57488447 2103339
0.2117466 -0.10946399 0.57589746 1052438
-0.18060037 -0.088390306 0.5209617 6906464
-0.17752925 -0.088608637 0.52208149 7893393
-0.17554954 -0.088988006 0.52495956 1053483
-0.17138693 -0.089045301 0.52432102 2763835
-0.1683158 -0.089263618 0.52544075 2828329
-0.16417465 -0.089319423 0.52479446 3025456
-0.16111061 -0.089537248 0.52591163 3025456
-0.15804663 -0.089755073 0.5270288 3025206
-0.15131256 -0.089398667 0.52193725 2959931
-0.14827356 -0.089614704 0.5230453 2828847
-0.14523453 -0.089830756 0.52415335 2894640
-0.14116839 -0.089881197 0.5234797 2764087
-0.13711652 -0.089930654 0.52280086 2698294
-0.13409176 -0.090145677 0.52390367 2894640
-0.12905559 -0.090026453 0.52142745 2960183
-0.12604517 -0.090240479 0.52252507 2959931
-0.12204328 -0.090286374 0.52182794 2828847
-0.11903998 -0.090499878 0.52292293 2894640
-0.11603668 -0.090713382 0.52401799 2828597
-0.11206335 -0.090757251 0.52331048 2828847
-0.10617861 -0.090459749 0.51898748 2959413
-0.10320386 -0.090671226 0.52007204 2959163
-0.10022914 -0.090882704 0.52115667 2762804
-0.09631294 -0.09092249 0.5204283 2697513
-0.093345344 -0.09113346 0.5215103 2894390
-0.090377778 -0.091344431 0.52259231 2697261
-0.087410152 -0.091555402 0.52367431 2697011
-0.084442586 -0.091766357 0.52475631 2697011
-0.080569267 -0.091803104 0.52401233 2697011
-0.076710224 -0.091838852 0.5232631 2697261
-0.072865486 -0.091873556 0.52250874 2499632
-0.069919318 -0.092083007 0.52358294 2631218
-0.066095978 -0.092116192 0.52282071 2303800
-0.062286943 -0.092148364 0.5220533 2172464
-0.05935505 -0.092356786 0.52312231 2304556
-0.055567443 -0.092387453 0.52234709 2304050
-0.052642703 -0.092595369 0.52341348 2499632
-0.048876524 -0.0926245 0.52263039 2368298
-0.042621642 -0.092114717 0.51628602 1777960
-0.035183221 -0.091331154 0.50713897 1710368
-0.031513482 -0.091353431 0.50632077 1380899
-0.027857989 -0.09137471 0.50549734 1248030
-0.025022507 -0.091576278 0.50653118 1052438
-0.020589858 -0.091414168 0.5038349 593420
-0.017768681 -0.091614723 0.5048635 528395
-0.014555365 -0.091723859 0.50495702 855309
-0.010960579 -0.091740802 0.50411153 1051659
-0.0081501305 -0.091940612 0.50513625 920861
-0.0045767725 -0.091956005 0.50428283 2697513
-0.0010177195 -0.091970444 0.50342429 2828345
0.0025270879 -0.09198381 0.5025605 2369843
0.0053161085 -0.092182085 0.50357741 2500665
0.0081051588 -0.09238036 0.50459433 2697261
0.010894209 -0.092578635 0.50561118 2304050
0.01368323 -0.092776909 0.5066281 2565675
0.016828686 -0.092881218 0.50669688 2695980
0.01961416 -0.093079239 0.50771248 2761271
0.02309823 -0.093088314 0.50682658 2629935
0.025876552 -0.093285829 0.50783956 2499632
0.029339194 -0.093293369 0.50694585 2106671
0.032110363 -0.093490377 0.50795621 2236991
0.034881562 -0.093687385 0.50896662 1975087
0.037652731 -0.093884379 0.50997698 2172464
0.04042393 -0.094081387 0.5109874 2172464
0.043195099 -0.094278395 0.51199776 2172464
0.046607763 -0.094282389 0.51108587 2236712
0.049371809 -0.09447889 0.51209366 1381403
0.05213584 -0.094675377 0.51310146 789266
0.053659797 -0.095260948 0.51796955 264455
0.051534936 -0.097018778 0.53444451 396041
0.053764626 -0.097415894 0.53741372 657930
0.056607217 -0.097617969 0.53845012 657930
0.060041308 -0.097623512 0.53754598 526094
0.062876776 -0.09782508 0.53857982 591894
0.06628941 -0.097829059 0.53766787 526094
0.069687784 -0.097832039 0.53675067 657680
0.072508961 -0.098032594 0.53777933 657930
0.075330138 -0.098233163 0.53880793 657680
0.078151315 -0.098433718 0.53983653 855059
0.080972493 -0.098634273 0.54086518 920852
0.08379367 -0.098834828 0.54189378 1315610
0.086614847 -0.099035397 0.54292238 1644575
0.08969602 -0.099135146 0.54296774 1841954
0.092513621 -0.099335447 0.54399508 1907747
0.095837027 -0.099333093 0.54305059 1907243
0.098647475 -0.099532887 0.54407531 2039333
0.10145795 -0.099732697 0.54510003 2038577
0.1042684 -0.099932492 0.5461247 2236462
0.10707888 -0.10013229 0.54714942 2302255
0.1103594 -0.10012688 0.54618931 2368298
0.11316273 -0.10032617 0.54721141 2302255
0.11642182 -0.10031927 0.54624349 2302255
0.11921798 -0.10051805 0.54726297 2302255
0.12245566 -0.10050958 0.54628718 2170669
0.12524471 -0.10070786 0.54730409 2367796
0.12760654 -0.10111439 0.55032152 2302255
0.13082278 -0.10110441 0.54933792 2302255
0.1336118 -0.10130268 0.55035478 2236712
0.13640085 -0.10150096 0.55137169 2236712
0.13918987 -0.10169923 0.55238861 2236712
0.14197892 -0.10189751 0.55340552 2236462
0.14476794 -0.10209578 0.55442238 1777960
0.14755699 -0.10229406 0.55543929 1777960
0.15034604 -0.10249233 0.55645621 2104876
0.15331651 -0.1025842 0.55646116 2039083
0.15610197 -0.10278222 0.55747676 1777708
0.15871312 -0.10308714 0.55950689 1711915
0.16150217 -0.10328542 0.56052381 2105126
0.1642912 -0.10348369 0.56154072 2104876
0.16708024 -0.10368197 0.56255758 1973540
0.16986927 -0.10388024 0.56357449 1973540
0.17265831 -0.10407852 0.56459141 2039083
0.17544734 -0.10427679 0.56560832 1972784
0.1782364 -0.10447507 0.56662524 2039083
0.18102542 -0.10467334 0.56764209 1973540
0.18381447 -0.10487162 0.56865901 1973540
0.1866035 -0.10506989 0.56967592 1973540
0.18939254 -0.10526817 0.57069278 1973540
0.19218157 -0.10546644 0.57170969 2105126
0.19497061 -0.10566472 0.57272661 1712165
0.19775963 -0.10586299 0.57374352 1776161
0.20054868 -0.10606125 0.57476044 1841450
0.2034549 -0.10614856 0.57474196 1776161
0.20624036 -0.10634658 0.57575756 1907243
0.20924591 -0.10632163 0.5746972 1906991
0.21202424 -0.10651913 0.57571018 989982
-0.18029347 -0.085135087 0.52075469 7433857
-0.17722234 -0.085353419 0.52187443 7565191
-0.17415118 -0.085571751 0.52299422 2632249
-0.17108002 -0.085790083 0.52411395 2829628
-0.16908532 -0.086162895 0.52699679 2829099
-0.16493773 -0.086226732 0.52635348 2960183
-0.16186658 -0.086445063 0.52747327 2960183
-0.15774044 -0.086507425 0.52682221 3090999
-0.15362856 -0.086568758 0.52616596 3025724
-0.14953095 -0.086629048 0.52550447 2960433
-0.14493084 -0.086609587 0.52394849 2894640
-0.14086542 -0.086667612 0.52327532 2894390
-0.13783357 -0.086883143 0.52438074 3025724
-0.13378951 -0.086939648 0.52369976 2894640
-0.12875476 -0.086835608 0.5212245 2764337
-0.12574431 -0.087049633 0.52232212 2960433
-0.12273386 -0.087263644 0.5234198 2960433
-0.11873987 -0.087316573 0.52272052 2959663
-0.11573657 -0.087530077 0.52381551 3024954
-0.11176395 -0.087581515 0.52310848 2960183
-0.10684347 -0.08746931 0.52059156 2894390
-0.10290661 -0.0875182 0.51987153 2894390
-0.099931866 -0.087729678 0.52095616 2894138
-0.096957117 -0.087941155 0.52204078 2697513
-0.093982399 -0.088152632 0.52312535 2763054
-0.09100768 -0.088364094 0.52420998 2566958
-0.087113619 -0.08840996 0.52347428 2566708
-0.084146023 -0.088620916 0.52455628 2697011
-0.08027342 -0.088665232 0.52381277 2763054
-0.076415092 -0.08870852 0.52306402 2763054
-0.073461801 -0.088918462 0.52414083 2827314
-0.069624901 -0.08896026 0.52338433 2762804
-0.066678733 -0.089169711 0.52445853 2697011
-0.062863261 -0.089209959 0.52369416 2238257
-0.059924215 -0.089418888 0.52476573 2304556
-0.056130201 -0.089457601 0.52399361 2565425
-0.052350432 -0.089495331 0.52321631 2499884
-0.048584968 -0.089532062 0.5224337 2499884
-0.04566738 -0.089739472 0.52349746 2236712
-0.042749792 -0.089946896 0.52456129 1907747
-0.039832175 -0.090154305 0.52562505 1383200
-0.036914587 -0.090361714 0.52668881 1120028
-0.033191949 -0.090395346 0.52589065 1118231
-0.029483587 -0.09042798 0.52508724 921102
-0.026580274 -0.090634391 0.52614576 921102
-0.014273822 -0.088737398 0.50476712 921102
-0.010679752 -0.088761896 0.50392205 1051659
-0.0078692734 -0.088961706 0.50494677 723480
-0.0042966306 -0.088984683 0.50409389 2304552
-0.001493305 -0.089183971 0.50511599 2697011
0.0020578802 -0.089205444 0.50425529 2566708
0.0048540533 -0.089404225 0.50527483 2238007
0.0076502562 -0.089603007 0.50629431 2761521
0.011172891 -0.089622423 0.50542319 2697011
0.013961941 -0.089820698 0.5064401 2632751
0.016750962 -0.090018973 0.50745702 2304050
0.019540012 -0.090217248 0.50847387 2499382
0.023375869 -0.090143472 0.5066393 2302255
0.02615419 -0.090340987 0.50765228 2630187
0.029616117 -0.090356097 0.50675905 2761521
0.032387286 -0.090553105 0.50776941 2629935
0.035158485 -0.090750113 0.50877982 2629935
0.037929654 -0.090947106 0.50979018 2170163
0.040700853 -0.091144115 0.5108006 2630187
0.043472022 -0.091341123 0.51181096 2630187
0.04688397 -0.091352686 0.51089954 3223087
0.049648017 -0.091549188 0.51190734 1643292
0.052412063 -0.091745675 0.51291513 920852
0.053008452 -0.092596531 0.52067667 526344
0.05304265 -0.09363842 0.53038883 461834
0.054048687 -0.094402939 0.53722209 592137
0.056891277 -0.094605014 0.53825855 591887
0.059733883 -0.094807103 0.53929496 330262
0.063160121 -0.094819665 0.53838867 461848
0.065995574 -0.095021233 0.53942251 657680
0.068831041 -0.095222816 0.5404563 789516
0.07222867 -0.095233366 0.53953969 789516
0.075612053 -0.095242888 0.53861779 789266
0.078433231 -0.095443457 0.53964639 920852
0.081254408 -0.095644012 0.54067498 1184024
0.084075585 -0.095844567 0.54170364 1447196
0.086896762 -0.096045136 0.54273224 1710368
0.089717939 -0.096245691 0.54376084 1841954
0.092795193 -0.096348971 0.54380512 1907747
0.095612794 -0.096549273 0.54483247 1907243
0.098928332 -0.096553981 0.54388583 1973540
0.10173881 -0.096753791 0.54491055 2104876
0.10454926 -0.096953586 0.54593527 2235431
0.10735974 -0.097153381 0.54696 2236712
0.11063954 -0.097155556 0.5460003 2236462
0.11344285 -0.097354844 0.5470224 2236712
0.11670123 -0.097355485 0.54605502 1909044
0.11949739 -0.097554266 0.5470745 1777708
0.12229359 -0.097753048 0.54809403 2236462
0.12508976 -0.097951829 0.54911351 2236712
0.12788595 -0.098150611 0.55013299 2236712
0.13068211 -0.098349392 0.55115253 1975087
0.13389051 -0.098346472 0.55016679 2236712
0.13667956 -0.098544747 0.5511837 2170919
0.13946858 -0.098743021 0.55220062 2039333
0.14225763 -0.098941296 0.55321753 1712165
0.14504665 -0.099139571 0.55423439 1777708
0.1478357 -0.099337846 0.5552513 2105376
0.15062474 -0.099536121 0.55626822 2039333
0.15341376 -0.099734396 0.55728507 1842204
0.15620281 -0.099932671 0.55830199 2039333
0.15899183 -0.10013093 0.5593189 2039083
0.16178088 -0.10032921 0.56033581 2234929
0.16456991 -0.10052748 0.56135267 2235179
0.16735895 -0.10072576 0.56236959 2300972
0.17014799 -0.10092403 0.5633865 2235431
0.17293702 -0.1011223 0.56440341 2039083
0.17572606 -0.10132058 0.56542027 2301222
0.17851511 -0.10151885 0.56643718 2105126
0.18130413 -0.10171713 0.5674541 1646122
0.18409318 -0.1019154 0.56847101 1907997
0.18688221 -0.10211368 0.56948793 2039333
0.18967125 -0.10231195 0.57050478 1907747
0.19246028 -0.10251023 0.5715217 2039083
0.19524932 -0.1027085 0.57253861 1907747
0.19803834 -0.10290678 0.57355547 1776411
0.20082739 -0.10310504 0.57457238 1841450
0.20373324 -0.10319614 0.5745542 1776161
0.20651871 -0.10339417 0.57556975 1973540
0.20930415 -0.10359219 0.57658535 2235179
0.21208963 -0.10379021 0.57760096 1052438
-0.17888233 -0.081734985 0.51879561 7237250
-0.17581832 -0.08195281 0.51991272 7500422
-0.17384431 -0.082316548 0.52278721 2829628
-0.17077315 -0.082534879 0.52390695 2500163
-0.16877773 -0.082900107 0.52678925 2631468
-0.16463086 -0.082971528 0.52614647 2960183
-0.16155967 -0.08318986 0.52726626 2960183
-0.15743425 -0.083259746 0.52661568 2894390
-0.15437022 -0.083477557 0.52773285 2959931
-0.1502662 -0.083545983 0.52707446 2828847
-0.14617643 -0.083613351 0.52641088 2894390
-0.14158815 -0.083604485 0.52485168 2894390
-0.13854912 -0.083820537 0.52595973 2959931
-0.13449869 -0.083885089 0.52528179 3025708
-0.12945825 -0.08379668 0.5228101 2960433
-0.12544349 -0.083858743 0.52211922 2894640
-0.12243304 -0.084072754 0.52321684 2894640
-0.11843976 -0.084133267 0.52251804 2828847
-0.11543646 -0.084346771 0.5236131 2960183
-0.11146453 -0.084405765 0.52290654 2828847
-0.10654551 -0.084308714 0.52039057 2828847
-0.10260937 -0.084365189 0.51967102 2762804
-0.099634618 -0.084576666 0.52075565 2762552
-0.096659869 -0.084788144 0.52184021 2631218
-0.09368512 -0.084999621 0.52292484 2697011
-0.090710402 -0.085211083 0.52400947 2697261
-0.087735683 -0.085422561 0.52509403 2697011
-0.08384949 -0.085475475 0.52435619 2697011
-0.080881894 -0.085686445 0.52543819 2631468
-0.077017158 -0.08573781 0.5246926 2697011
-0.074056715 -0.085948274 0.52577204 2697011
-0.070213348 -0.085998103 0.52501857 2631218
-0.066384345 -0.086046964 0.52425992 2499632
-0.063438147 -0.0862564 0.52533412 2172464
-0.059630543 -0.086303711 0.5245676 2565675
-0.055837244 -0.086350024 0.52379602 2304050
-0.05205816 -0.086395323 0.52301913 2565675
-0.04913342 -0.086603254 0.52408552 2565675
-0.04620868 -0.08681117 0.52515191 2041130
-0.043283939 -0.087019086 0.5262183 1843501
-0.039540619 -0.087061822 0.52542835 1776161
-0.036623031 -0.087269232 0.52649212 1317407
-0.032901108 -0.087310448 0.52569443 922651
-0.029193461 -0.087350652 0.5248915 986895
-0.026290148 -0.087557063 0.52595007 921102
-0.023386836 -0.087763458 0.52700865 921102
-0.011174649 -0.085951209 0.50560451 1051659
-0.0075884163 -0.085982785 0.50475734 1183520
-0.0047779679 -0.086182579 0.50578201 1778208
-0.0012131631 -0.086212635 0.50492704 2170163
0.0023373067 -0.086241677 0.50406682 1775657
0.0051334798 -0.086440459 0.50508636 1448493
0.0079296529 -0.08663924 0.50610584 1709614
0.010725856 -0.086838022 0.50712532 1448745
0.014240652 -0.086864516 0.50625211 726312
0.017029673 -0.087062791 0.50726897 658963
0.020170867 -0.087174416 0.50733691 988194
0.023653507 -0.08719863 0.50645202 593436
0.027121872 -0.087221801 0.50556183 593170
0.029893041 -0.08741881 0.50657225 1184565
0.03266421 -0.087615818 0.5075826 461584
0.035435408 -0.087812826 0.50859302 1051686
0.038206577 -0.088009819 0.50960338 1182741
0.040977776 -0.088206828 0.5106138 659477
0.044396132 -0.088226497 0.50970542 856608
0.047160178 -0.088422999 0.51071322 1118231
0.048658431 -0.088976234 0.51556897 1052688
0.049872354 -0.089620963 0.52139843 789266
0.051431298 -0.090178519 0.52627629 591887
0.053324565 -0.090648159 0.53019863 592137
0.054332733 -0.091389954 0.53703046 592137
0.057175338 -0.091592029 0.53806692 461584
0.060017943 -0.091794118 0.53910333 461584
0.063443467 -0.091814265 0.53819752 591894
0.066278934 -0.092015833 0.53923136 657680
0.069114387 -0.092217416 0.5402652 789516
0.071949854 -0.092418984 0.54129899 789516
0.07533963 -0.092436597 0.54038024 920852
0.078167945 -0.092637658 0.54141146 1118231
0.081536323 -0.092653751 0.54048485 988442
0.0843575 -0.092854306 0.54151344 1383200
0.087178677 -0.093054876 0.54254204 1580579
0.089999855 -0.09325543 0.5435707 1907747
0.093076751 -0.09336248 0.54361522 1972784
0.095894367 -0.093562782 0.54464251 1841450
0.099209175 -0.09357506 0.5436964 1776161
0.10201965 -0.09377487 0.54472113 2039083
0.1048301 -0.093974665 0.54574585 1973540
0.10764058 -0.09417446 0.54677051 2170669
0.11045104 -0.094374254 0.54779524 1909044
0.11326151 -0.094574049 0.54881996 2170919
0.11698064 -0.094391719 0.54586649 2236462
0.11977682 -0.0945905 0.54688603 2236712
0.12257302 -0.094789281 0.5479055 2236462
0.12536918 -0.094988063 0.54892504 2171169
0.12816536 -0.095186844 0.54994452 2236712
0.13096154 -0.095385626 0.550964 1909294
0.13375773 -0.095584407 0.55198354 1712165
0.13695827 -0.095588565 0.55099571 1843501
0.13974729 -0.09578684 0.55201256 2105376
0.14253634 -0.095985115 0.55302948 1844001
0.14532536 -0.096183389 0.55404639 2170669
0.14811441 -0.096381664 0.55506331 2105376
0.15090343 -0.096579939 0.55608016 1777960
0.15369245 -0.096778214 0.55709708 2105376
0.15665868 -0.096877396 0.55710125 2105126
0.15944412 -0.097075418 0.55811685 1972784
0.1622296 -0.097273439 0.55913246 1972282
0.16501506 -0.097471446 0.560148 1907243
0.16763766 -0.097769573 0.56218159 2039333
0.1704267 -0.097967848 0.56319851 1973540
0.17321573 -0.098166123 0.56421542 2104876
0.17600477 -0.098364398 0.56523228 1973540
0.17879382 -0.098562673 0.56624919 2104876
0.18158284 -0.098760948 0.56726611 1711915
0.18437189 -0.098959222 0.56828302 1514788
0.18716092 -0.099157497 0.56929988 2039083
0.18994996 -0.099355772 0.57031679 1973540
0.19273899 -0.099554047 0.57133371 1907243
0.19552803 -0.099752322 0.57235062 1907747
0.19831705 -0.099950597 0.57336748 1580829
0.2011061 -0.10014886 0.57438439 2039083
0.20389514 -0.10034713 0.57540131 1514538
0.20679705 -0.10044175 0.57538199 1972784
0.20958249 -0.10063978 0.5763976 2103843
0.21236798 -0.1008378 0.5774132 1709864
-0.17857614 -0.078487352 0.51858902 7039871
-0.17551216 -0.078705177 0.51970619 7368584
-0.1735374 -0.079061329 0.52258015 3026505
-0.1715484 -0.079418451 0.52545941 2433589
-0.16954508 -0.079776615 0.5283438 2697261
-0.1653918 -0.079856128 0.52770412 2762804
-0.16125277 -0.079934642 0.5270592 2894390
-0.15712807 -0.080012113 0.52640915 2894640
-0.15406406 -0.080229923 0.52752632 2894390
-0.14996076 -0.080305904 0.5268684 2894640
-0.14587167 -0.080380827 0.5262053 2894640
-0.14128447 -0.080383316 0.52464682 2698294
-0.13824543 -0.080599368 0.52575487 2894640
-0.13419572 -0.080671519 0.52507746 3091249
-0.13016024 -0.080742642 0.52439481 3484217
-0.12613913 -0.080812797 0.52370691 3091249
-0.12213221 -0.080881879 0.52301389 2960183
-0.11813962 -0.080949962 0.52231562 2960433
-0.11513633 -0.081163466 0.52341062 2960433
-0.11213303 -0.08137697 0.52450567 2697261
-0.10816899 -0.081443027 0.52379698 2762804
-0.10421923 -0.08150807 0.52308309 2763054
-0.1012302 -0.081720561 0.5241729 2697011
-0.09824118 -0.081933051 0.52526271 2827827
-0.094320029 -0.081996053 0.5245384 2827827
-0.091338158 -0.082208037 0.52562565 2697011
-0.087438405 -0.082269549 0.52489352 2762804
-0.084463686 -0.082481027 0.52597815 2697261
-0.080585331 -0.082540974 0.52523816 2631468
-0.077617735 -0.082751945 0.52632016 2697011
-0.074650139 -0.082962915 0.52740216 2499632
-0.069918245 -0.082867786 0.52481949 2631218
-0.066964924 -0.083077744 0.52589625 2697011
-0.06314376 -0.083133653 0.52513552 2827314
-0.060197592 -0.083343104 0.52620971 2827566
-0.056397825 -0.083397508 0.52544111 2631218
-0.052612364 -0.083450854 0.52466732 2565927
-0.048841149 -0.083503217 0.52388835 2499884
-0.045916408 -0.083711132 0.52495474 2499884
-0.042991668 -0.083919048 0.52602112 2236462
-0.040066928 -0.084126979 0.52708751 1973540
-0.036331475 -0.084176764 0.52629548 1710368
-0.033413887 -0.084384173 0.52735925 1447196
-0.029699802 -0.084432468 0.52655941 988692
-0.026789367 -0.08463937 0.52762061 1118231
-0.02309671 -0.084686145 0.52681291 725270
-0.020193398 -0.084892541 0.52787149 920852
-0.0073075891 -0.083003893 0.50456786 1445913
-0.003736347 -0.083042011 0.50371593 1906464
-0.00093302131 -0.083241299 0.50473803 2958148
0.0033631921 -0.083115235 0.50199646 4470844
0.0061522424 -0.08331351 0.50301337 5984083
0.0082090795 -0.083675459 0.50591737 3288378
0.011730313 -0.08371006 0.5050472 4207672
0.014519364 -0.083908334 0.50606406 5918040
0.017308384 -0.084106609 0.50708097 3089182
0.020449191 -0.084222004 0.50714916 5851734
0.023931146 -0.084253773 0.50626475 5324870
0.027398795 -0.084284544 0.50537503 4602680
0.030852169 -0.084314331 0.50448018 6050653
0.033616185 -0.084510833 0.50548798 3813684
0.036380231 -0.08470732 0.50649577 4407629
0.039144278 -0.084903821 0.50750351 3226428
0.041908324 -0.085100323 0.5085113 3290681
0.04467234 -0.08529681 0.5095191 3220784
0.047436386 -0.085493311 0.5105269 3154471
0.049568236 -0.08586058 0.51345813 1446163
0.047964126 -0.087256774 0.52795124 658963
0.050785303 -0.087457329 0.52897984 526094
0.052384973 -0.088002563 0.53387111 526344
0.054616809 -0.088376984 0.53683889 787983
0.057459399 -0.088579059 0.53787529 788496
0.060302004 -0.088781148 0.5389117 657680
0.063144609 -0.088983223 0.53994817 789266
0.066562265 -0.089010432 0.53904021 789516
0.069397733 -0.089212015 0.54007405 985612
0.0722332 -0.089413583 0.54110789 921102
0.075068653 -0.089615166 0.54214168 1182741
0.07845059 -0.089639828 0.54122078 1052438
0.081278905 -0.089840904 0.54225206 1512998
0.08463943 -0.08986403 0.54132324 1776411
0.087460592 -0.0900646 0.5423519 2038050
0.090281785 -0.090265155 0.5433805 2038050
0.093358308 -0.090376019 0.54342526 1841450
0.096175924 -0.090576321 0.54445255 1841954
0.099490017 -0.090596169 0.54350692 1842204
0.10230049 -0.090795979 0.54453164 2039333
0.10511094 -0.090995774 0.54555637 2105126
0.10744634 -0.091377541 0.54856181 2367265
0.11026394 -0.091577843 0.54958916 2367796
0.11308156 -0.091778159 0.5506165 2105126
0.11726007 -0.091427937 0.54567802 2039083
0.12005624 -0.091626719 0.5466975 2104876
0.12285244 -0.0918255 0.54771703 2170163
0.12564859 -0.092024282 0.54873651 2301222
0.12844479 -0.092223063 0.54975605 2367015
0.13124096 -0.092421845 0.55077553 2104370
0.13403714 -0.092620626 0.55179507 2039333
0.13683331 -0.092819408 0.55281454 1843501
0.13962948 -0.093018189 0.55383408 2105376
0.14281504 -0.093028933 0.55284148 2105126
0.14560406 -0.093227208 0.5538584 2105126
0.14839311 -0.093425483 0.55487531 2105126
0.15118214 -0.093623757 0.55589217 2105126
0.15397117 -0.093822032 0.55690908 1973540
0.15693702 -0.093924984 0.5569135 2039083
0.15972248 -0.094123006 0.55792904 1973540
0.16250795 -0.094321027 0.55894464 1776161
0.16529341 -0.094519034 0.55996025 1973540
0.16791636 -0.094813392 0.5619936 1973540
0.17070539 -0.095011666 0.56301045 2039333
0.17349443 -0.095209941 0.56402737 1646122
0.17628346 -0.095408216 0.56504428 1973540
0.17907251 -0.095606491 0.5660612 2105126
0.18186153 -0.095804766 0.56707811 2039083
0.18465059 -0.096003041 0.56809497 1973540
0.18743962 -0.096201316 0.56911188 2039333
0.19022866 -0.09639959 0.5701288 1907243
0.19301769 -0.096597865 0.57114565 2235429
0.19580673 -0.09679614 0.57216257 1907747
0.19859575 -0.096994415 0.57317948 1841954
0.2013848 -0.097192675 0.5741964 1907243
0.20417383 -0.09739095 0.57521331 2037546
0.2070754 -0.097489342 0.57519424 2234929
0.20986085 -0.097687364 0.57620984 2235429
0.21254094 -0.097985774 0.578264 1119274
-0.18047568 -0.075499162 0.5218848 7170172
-0.1773974 -0.075718001 0.52300715 7433607
-0.17540762 -0.076067567 0.52588582 4276313
-0.17232218 -0.076286912 0.5270108 2302255
-0.16923675 -0.076506257 0.52813578 2827566
-0.16508421 -0.076593354 0.52749664 2827314
-0.16094586 -0.076679409 0.52685219 2959163
-0.15682188 -0.076764449 0.52620262 2894640
-0.15375787 -0.07698226 0.52731979 2828847
-0.14965528 -0.077065811 0.52666235 2894390
-0.14556691 -0.077148333 0.52599972 2894390
-0.14098078 -0.077162161 0.52444196 2894390
-0.13794175 -0.077378213 0.52555001 3025456
-0.13389274 -0.077457935 0.52487308 3025456
-0.13086089 -0.077673465 0.52597851 2959931
-0.12683329 -0.077751666 0.52529377 2893870
-0.12183139 -0.077691004 0.522811 3024954
-0.11882094 -0.077905014 0.52390862 2893870
-0.11483622 -0.077980161 0.5232082 2762804
-0.11183289 -0.078193665 0.5243032 2827566
-0.10786957 -0.078267291 0.52359504 2893620
-0.10487342 -0.078480288 0.52468741 2827827
-0.1009315 -0.078552395 0.52397138 2697011
-0.097942501 -0.078764886 0.52506119 2893870
-0.094022036 -0.078835472 0.52433741 2828077
-0.091040164 -0.079047456 0.5254246 2828077
-0.088058293 -0.07925944 0.52651185 2697011
-0.084166437 -0.079328001 0.52577764 2631720
-0.081191689 -0.079539478 0.5268622 2697011
-0.077321202 -0.079606488 0.52612013 2697261
-0.073465019 -0.0796725 0.52537286 2697011
-0.070504576 -0.07988295 0.5264523 2565175
-0.066669792 -0.079947442 0.52569717 2631468
-0.063716501 -0.080157384 0.52677399 2499884
-0.059903175 -0.080220386 0.52601111 2565175
-0.056957036 -0.080429822 0.5270853 2697261
-0.052319378 -0.080343246 0.52446973 2697513
-0.049387485 -0.080551669 0.52553868 2565425
-0.045624167 -0.080611095 0.52475762 2499632
-0.042699426 -0.080819011 0.52582395 2368298
-0.039774686 -0.081026942 0.52689034 2039333
-0.036849946 -0.081234857 0.52795672 1841954
-0.033122331 -0.08129172 0.52716255 1709864
-0.030204713 -0.081499144 0.52822632 1447196
-0.026498526 -0.081554487 0.5274244 1249817
-0.023588061 -0.08176139 0.5284856 1250067
-0.020677596 -0.081968293 0.52954674 1052438
-0.007026732 -0.080024987 0.50437844 1248030
-0.0034562349 -0.080070674 0.50352699 2236462
9.9986792e-05 -0.080115348 0.50267035 3290179
0.0036419034 -0.080159023 0.50180846 3420984
0.0064309537 -0.080357298 0.50282538 3485757
0.0092199743 -0.080555573 0.50384229 2960685
0.012009025 -0.080753848 0.50485915 3486007
0.014798075 -0.080952123 0.50587606 3419712
0.017942101 -0.081071571 0.5059458 2762536
0.020727545 -0.081269592 0.50696141 3485505
0.024904519 -0.081150293 0.50417781 2631218
0.027675688 -0.081347287 0.50518823 2368048
0.031128377 -0.081384614 0.50429386 2894122
0.033892393 -0.081581116 0.50530165 2827566
0.036656439 -0.081777602 0.50630945 2827314
0.039420485 -0.081974104 0.50731719 2631218
0.042184532 -0.082170606 0.50832498 2302255
0.044948563 -0.082367092 0.50933278 1973540
0.047712594 -0.082563594 0.51034057 1578003
0.049845144 -0.082923323 0.51327133 1249817
0.052616328 -0.083120331 0.51428175 855059
0.049832851 -0.084795579 0.53264612 788496
0.051448226 -0.085326657 0.53754163 657160
0.054297969 -0.085529253 0.53858066 787983
0.05774346 -0.085566089 0.53768367 788496
0.060586065 -0.085768178 0.53872013 657680
0.06342867 -0.085970253 0.53975654 789266
0.066845626 -0.086005017 0.53884912 855309
0.069681078 -0.0862066 0.5398829 855059
0.072516546 -0.086408168 0.54091674 920852
0.075351998 -0.086609751 0.54195058 1380624
0.078733206 -0.086641997 0.54103017 1447196
0.081561536 -0.086843073 0.54206139 1775657
0.084921345 -0.08687377 0.54113311 1776161
0.087742507 -0.087074339 0.5421617 1907243
0.0905637 -0.087274894 0.54319036 1907747
0.093384862 -0.087475449 0.54421896 1907243
0.096457481 -0.08758983 0.54426265 2103339
0.099275082 -0.087790146 0.54528993 2235429
0.1020927 -0.087990448 0.54631728 2235431
0.1049103 -0.088190749 0.54734457 2039333
0.10772792 -0.088391051 0.54837191 2171169
0.11054552 -0.088591352 0.5493992 2302255
0.11336312 -0.088791668 0.55042654 2038075
0.11708659 -0.088640124 0.5474776 2170163
0.12033565 -0.088662952 0.54650903 2236712
0.12313186 -0.088861734 0.54752856 2170163
0.12592801 -0.089060515 0.54854804 2170669
0.12872422 -0.089259297 0.54956758 2236712
0.13152038 -0.089458078 0.55058706 2236210
0.13431656 -0.08965686 0.55160654 2170919
0.13711274 -0.089855641 0.55262607 1843751
0.13990891 -0.090054423 0.55364555 2104876
0.14309375 -0.090072721 0.55265349 2235431
0.14588277 -0.090270996 0.55367041 2039083
0.14867182 -0.090469271 0.55468726 2039083
0.15146086 -0.090667546 0.55570418 2105126
0.15424988 -0.090865821 0.55672109 2104876
0.15703893 -0.091064095 0.55773795 2105126
0.15982795 -0.091262355 0.55875486 2039333
0.162617 -0.09146063 0.55977178 2039583
0.16540603 -0.091658905 0.56078869 1973540
0.16819507 -0.09185718 0.56180561 2039083
0.1709841 -0.092055455 0.56282246 1973540
0.17377314 -0.09225373 0.56383938 1973540
0.17656218 -0.092452005 0.56485629 1973540
0.17935123 -0.092650279 0.56587315 2039083
0.18214025 -0.092848554 0.56689006 1973540
0.1849293 -0.093046829 0.56790698 1776161
0.18771833 -0.093245104 0.56892389 2037546
0.19050737 -0.093443379 0.56994081 2037546
0.1932964 -0.093641654 0.57095766 1972257
0.19608544 -0.093839929 0.57197458 1841954
0.19887446 -0.094038203 0.57299149 1775657
0.20166351 -0.094236463 0.57400835 1972257
0.20445254 -0.094434738 0.57502526 2103339
0.20735376 -0.09453693 0.57500648 1775657
0.2101392 -0.094734952 0.57602203 1644575
0.21281965 -0.095029563 0.578076 921897
-0.18092227 -0.072884515 0.52893603 7236998
-0.17673111 -0.072981969 0.52831167 4211806
-0.17201388 -0.073016554 0.52680284 1973540
-0.16892844 -0.073235899 0.52792782 2565675
-0.16477659 -0.073330551 0.52728909 2697011
-0.16063896 -0.073424175 0.52664518 2894138
-0.15756783 -0.073642507 0.52776492 2828597
-0.15345168 -0.073734626 0.5271132 2959663
-0.14934981 -0.073825732 0.5264563 2827566
-0.14526215 -0.073915809 0.52579415 2959413
-0.14067709 -0.073941007 0.5242371 2697011
-0.13763806 -0.074157059 0.52534515 2762804
-0.13459906 -0.074373111 0.5264532 2894640
-0.13055792 -0.074459881 0.52577412 2960183
-0.12752604 -0.074675426 0.52687955 2763054
-0.12251845 -0.074630409 0.52440035 2958148
-0.11852011 -0.074714139 0.52370566 2631720
-0.11550966 -0.07492815 0.52480328 2894390
-0.11153278 -0.075010359 0.52410078 2894390
-0.10757017 -0.075091556 0.52339303 2762804
-0.10457402 -0.075304553 0.52448547 2697011
-0.10063282 -0.075384244 0.52376992 2697011
-0.097643793 -0.075596735 0.52485973 2631468
-0.093724072 -0.075674877 0.52413642 2697011
-0.090742201 -0.07588686 0.52522361 2762804
-0.087760299 -0.076098844 0.5263108 2697261
-0.083869159 -0.076174974 0.52557707 2697513
-0.079992235 -0.076250076 0.52483809 2762804
-0.077024639 -0.076461047 0.52592009 2697513
-0.073169202 -0.076534614 0.52517331 2565425
-0.070208758 -0.076745063 0.52625275 2827064
-0.066374689 -0.07681714 0.52549809 2761773
-0.062554926 -0.076888189 0.52473831 2761773
-0.059608787 -0.077097639 0.52581251 2761521
-0.056662619 -0.077307075 0.5268867 2761773
-0.052871406 -0.077376083 0.52611643 2761773
-0.04993239 -0.077585027 0.52718806 2695728
-0.046162635 -0.077652499 0.52641004 2499632
-0.043230742 -0.077860922 0.52747899 2368048
-0.039482415 -0.077926919 0.52669322 2236712
-0.036557674 -0.078134835 0.52775955 1973540
-0.032830775 -0.078199267 0.52696586 1775657
-0.029913157 -0.078406692 0.52802968 1644575
-0.026207685 -0.078469589 0.52722824 1381403
-0.022516459 -0.078531489 0.52642149 1249817
-0.019613147 -0.078737885 0.52748007 1118231
-0.0075123608 -0.077192083 0.50606197 1576995
-0.0031760931 -0.077099323 0.50333798 2236712
0.0011315644 -0.077004567 0.50060356 2828847
0.0039206147 -0.077202827 0.50162047 3026226
0.0067096651 -0.077401102 0.50263739 3157310
0.0094986856 -0.077599376 0.50365424 2368298
0.012287736 -0.077797651 0.50467116 3355191
0.015076756 -0.077995926 0.50568807 3158091
0.018220454 -0.078119144 0.50575805 2238759
0.021708101 -0.078166589 0.50487715 3353937
0.025181442 -0.078213006 0.50399101 2960183
0.027952611 -0.07841 0.50500143 2697011
0.031404585 -0.078454912 0.50410753 2499632
0.034168601 -0.078651413 0.50511533 2302255
0.037265867 -0.078771338 0.50516838 2368298
0.040026337 -0.078967586 0.50617486 2106923
0.042786807 -0.07916382 0.50718135 1777960
0.045224771 -0.07943739 0.50914645 1710368
0.047988802 -0.079633892 0.51015425 1447196
0.050122067 -0.079986036 0.51308453 1249817
0.052893251 -0.080183044 0.51409495 920852
0.050116196 -0.081790194 0.53245497 591887
0.051733002 -0.082306132 0.53734952 526094
0.054582745 -0.082508728 0.53838855 657680
0.057432488 -0.082711309 0.53942758 657680
0.060870126 -0.082755208 0.5385285 789266
0.063712731 -0.082957283 0.53956491 1182741
0.066555336 -0.083159372 0.54060137 986645
0.069964424 -0.083201215 0.53969181 1052438
0.072799891 -0.083402783 0.54072559 1381403
0.075635344 -0.083604366 0.54175943 1513239
0.078470811 -0.083805934 0.54279327 1710368
0.081844166 -0.083845228 0.54187071 1775657
0.08520326 -0.083883509 0.54094291 1644575
0.088024437 -0.084084079 0.54197156 1775657
0.090845615 -0.084284633 0.54300016 1841954
0.093666792 -0.084485188 0.54402876 1841954
0.096739054 -0.084603354 0.54407269 1775657
0.099556655 -0.084803671 0.54510003 1907243
0.10237426 -0.085003972 0.54612732 1776161
0.10519186 -0.085204273 0.54715466 2235429
0.10800947 -0.085404575 0.54818195 2039333
0.11082707 -0.085604876 0.5492093 2170669
0.11364469 -0.085805193 0.55023658 2497331
0.11736673 -0.085668772 0.54728866 2497331
0.12061507 -0.085699201 0.54632056 2432808
0.12341127 -0.085897982 0.54734004 2236712
0.12620744 -0.086096764 0.54835957 2170919
0.12900363 -0.086295545 0.54937905 2039333
0.13179979 -0.086494327 0.55039859 1776186
0.13459599 -0.086693108 0.55141807 1907747
0.13739216 -0.08689189 0.55243754 2105126
0.14018834 -0.087090671 0.55345708 1843501
0.14337245 -0.087116525 0.5524655 2039333
0.14616147 -0.087314799 0.55348235 2038577
0.14895052 -0.087513074 0.55449927 2104876
0.15173957 -0.087711349 0.55551618 2105126
0.15452859 -0.087909624 0.55653304 2039083
0.15731764 -0.088107899 0.55754995 1907747
0.16027918 -0.088218167 0.55755353 1646372
0.16306466 -0.088416189 0.55856913 1646372
0.16568474 -0.088702708 0.56060064 2105126
0.16847378 -0.088900983 0.56161755 2039083
0.17126282 -0.089099258 0.56263447 2039333
0.17405185 -0.089297533 0.56365138 1842204
0.17684089 -0.089495808 0.5646683 2105126
0.17962994 -0.089694083 0.56568515 2039083
0.18241896 -0.089892358 0.56670207 2105126
0.18520801 -0.090090632 0.56771898 1907243
0.18799704 -0.090288907 0.56873584 1775657
0.19078608 -0.090487182 0.56975275 2038050
0.19357511 -0.090685457 0.57076967 2235429
0.19636415 -0.090883732 0.57178658 1776161
0.19915317 -0.091081992 0.5728035 1710368
0.20194222 -0.091280267 0.57382035 1710368
0.20473126 -0.091478541 0.57483727 1971753
0.20785576 -0.091399908 0.57274777 1841450
0.21085057 -0.091412306 0.57168716 1907747
0.21362175 -0.091609299 0.57269752 1052688
-0.17479098 -0.069526836 0.5254699 4477033
-0.17170554 -0.069746181 0.52659482 1841954
-0.16862011 -0.069965526 0.5277198 2695980
-0.16553468 -0.070184872 0.52884477 2958650
-0.16139069 -0.070286587 0.52820396 2762804
-0.15726092 -0.070387289 0.52755791 2828597
-0.15314552 -0.070486963 0.52690667 2828847
-0.14904433 -0.070585653 0.52625024 2959663
-0.14495742 -0.0706833 0.52558851 2959663
-0.14037341 -0.070719853 0.52403224 2828597
-0.13733438 -0.070935905 0.52514029 3025206
-0.13429537 -0.071151957 0.52624834 3025456
-0.13125637 -0.071367994 0.52735639 3025708
-0.12821734 -0.071584046 0.52846444 3025206
-0.12419119 -0.071677357 0.52778065 3089734
-0.12017933 -0.071769685 0.52709162 2959663
-0.11520883 -0.07173726 0.52460039 3090747
-0.11123267 -0.071827054 0.5238983 2828597
-0.10727078 -0.071915835 0.52319109 2697261
-0.10427463 -0.072128832 0.52428353 2762804
-0.10033414 -0.072216079 0.52356839 2565425
-0.097345114 -0.072428569 0.5246582 2631468
-0.09435609 -0.07264106 0.52574807 2565425
-0.090444237 -0.072726265 0.52502263 2238007
-0.087462336 -0.072938249 0.52610981 2697261
-0.083571881 -0.073021948 0.52537656 2565675
-0.079695672 -0.073104605 0.52463806 2631218
-0.076728076 -0.073315576 0.52572006 2697261
-0.072873354 -0.073396742 0.52497375 2499884
-0.06991291 -0.073607191 0.52605319 2499632
-0.066079557 -0.073686823 0.52529901 2434091
-0.062260538 -0.073765442 0.52453971 2499884
-0.05931437 -0.073974892 0.5256139 2499884
-0.056368202 -0.074184328 0.5266881 2565675
-0.053422034 -0.074393779 0.52776229 2761773
-0.049638689 -0.074469835 0.52698994 2695728
-0.046699673 -0.074678764 0.52806151 2629935
-0.042937785 -0.074753329 0.5272814 2368048
-0.039190143 -0.074826881 0.52649605 2302755
-0.036265403 -0.075034797 0.52756244 1843751
-0.032539219 -0.075106785 0.52676922 2039083
-0.029621631 -0.075314209 0.52783298 1776161
-0.025916845 -0.075384691 0.52703202 1774878
-0.022226334 -0.075454175 0.52622581 1381403
-0.019323021 -0.075660571 0.52728438 1381403
-0.0072307885 -0.074205592 0.50587207 1643292
-0.0028959513 -0.074128002 0.50314903 2105376
0.0014102757 -0.074048355 0.50041556 2631720
0.004199326 -0.074246615 0.50143248 2632751
0.0069883466 -0.07444489 0.50244933 2763333
0.0097773969 -0.074643165 0.50346625 2566456
0.012566447 -0.07484144 0.50448316 3814972
0.015355468 -0.075039715 0.50550008 4209228
0.018498778 -0.075166762 0.50557029 2629935
0.021985739 -0.075221747 0.50468987 3879759
0.025458366 -0.075275734 0.50380421 2565425
0.028229535 -0.075472727 0.50481462 2827314
0.031680793 -0.075525209 0.50392121 2827314
0.034444809 -0.075721711 0.50492901 2170919
0.037541717 -0.07584542 0.50498229 2236712
0.040302187 -0.076041669 0.50598878 2170919
0.043062657 -0.076237902 0.50699526 1841450
0.045500979 -0.076507688 0.50896013 1251366
0.04826501 -0.076704189 0.50996792 1120028
0.050398991 -0.077048764 0.51289773 922651
0.052547291 -0.077394381 0.51583284 920852
0.049783766 -0.07893391 0.53419113 789266
0.052017778 -0.079285577 0.53715742 591887
0.054867521 -0.079488173 0.53819644 853776
0.057717264 -0.079690754 0.53923547 920852
0.061154187 -0.079742238 0.53833687 986645
0.063996792 -0.079944313 0.53937328 1183520
0.066839397 -0.080146402 0.54040974 1445409
0.069681987 -0.080348477 0.54144615 1381403
0.073083237 -0.080397382 0.5405345 1644575
0.075918689 -0.080598965 0.54156828 1906714
0.078754157 -0.080800533 0.54260212 1972257
0.082126796 -0.080847397 0.5416801 1841450
0.08548519 -0.080893248 0.54075277 1776161
0.088306352 -0.081093818 0.54178137 1448745
0.091127545 -0.081294373 0.54280996 1448745
0.093948707 -0.081494927 0.54383862 1776161
0.097020596 -0.081616864 0.54388279 1841450
0.099838197 -0.08181718 0.54491007 1907243
0.10265583 -0.082017481 0.54593742 2103843
0.10547343 -0.082217783 0.5469647 1841954
0.10829103 -0.082418084 0.54799205 1973540
0.11110863 -0.082618386 0.54901934 2105126
0.11392623 -0.082818702 0.55004668 2039333
0.11719534 -0.082858235 0.54908687 2170669
0.12045017 -0.082896739 0.54812181 2170669
0.12325349 -0.083096027 0.54914391 2367015
0.12605682 -0.083295316 0.55016601 2170669
0.12928306 -0.083331779 0.54919058 2105126
0.13207921 -0.08353056 0.55021006 2104370
0.1348754 -0.083729342 0.5512296 1907747
0.13767157 -0.083928123 0.55224907 2039083
0.14046775 -0.084126905 0.55326855 2039333
0.14365116 -0.084160313 0.55227745 2039333
0.14644018 -0.084358588 0.55329436 2039083
0.14922923 -0.084556863 0.55431128 2039333
0.15201828 -0.084755138 0.55532813 2039333
0.1548073 -0.084953412 0.55634505 2039083
0.15759635 -0.085151687 0.55736196 1973540
0.16055752 -0.085265785 0.55736578 1973540
0.163343 -0.085463807 0.55838138 1907747
0.16596344 -0.085746497 0.56041265 2038050
0.16875248 -0.085944772 0.56142956 2038050
0.17154151 -0.086143047 0.56244648 1776161
0.17433055 -0.086341321 0.56346333 1907997
0.17711958 -0.086539596 0.56448025 1973540
0.17990863 -0.086737871 0.56549716 1973540
0.18269765 -0.086936146 0.56651407 1973540
0.18520662 -0.087307408 0.56958067 1841450
0.18800281 -0.08750619 0.57060015 1841954
0.19079898 -0.087704971 0.57161963 1841954
0.19385381 -0.087729245 0.57058167 1775657
0.19664285 -0.08792752 0.57159853 1514788
0.19943187 -0.08812578 0.57261544 1710368
0.20222092 -0.088324055 0.57363236 1776161
0.20500995 -0.08852233 0.57464927 2039083
0.2081334 -0.088455066 0.57256049 2235429
0.21112749 -0.088475034 0.57150036 659477
0.21389867 -0.088672027 0.57251072 4071251
-0.17448267 -0.066256478 0.52526188 5658741
-0.17139724 -0.066475824 0.52638686 1775657
-0.1683118 -0.066695169 0.52751184 2565425
-0.16522637 -0.066914514 0.52863681 2499382
-0.16108307 -0.067023799 0.52799648 2631218
-0.15695402 -0.067132056 0.5273509 2763054
-0.15283933 -0.067239329 0.52670014 2762804
-0.1497753 -0.067457154 0.52781731 2828847
-0.14568198 -0.067562878 0.52715874 2763054
-0.14006972 -0.067498699 0.52382737 2894390
-0.13703069 -0.067714751 0.52493542 2894138
-0.13298383 -0.067817166 0.52425992 2894640
-0.12995195 -0.068032697 0.52536535 2960183
-0.1269201 -0.068248242 0.52647078 2763054
-0.12388822 -0.068463773 0.52757627 2894390
-0.11987704 -0.06856367 0.52688777 2894390
-0.11490801 -0.068546385 0.52439743 2828597
-0.11093256 -0.068643749 0.52369583 2762804
-0.10697135 -0.0687401 0.52298909 2762804
-0.10397521 -0.068953097 0.52408153 2369843
-0.10003543 -0.069047913 0.52336693 2697011
-0.097046405 -0.069260404 0.52445674 2499884
-0.094057411 -0.069472894 0.52554655 2304050
-0.090146244 -0.069565654 0.52482158 2697011
-0.087164372 -0.069777638 0.52590883 2827566
-0.083274633 -0.069868922 0.52517605 2697261
-0.079399139 -0.069959164 0.52443802 2697261
-0.076431543 -0.070170134 0.52552003 2697011
-0.073463947 -0.070381105 0.52660203 2827827
-0.069617063 -0.070469305 0.52585363 2761521
-0.065784425 -0.070556507 0.52509993 2499632
-0.061966121 -0.07064268 0.52434111 2499632
-0.059019953 -0.070852131 0.5254153 2499632
-0.056073785 -0.071061566 0.5264895 2499632
-0.053127617 -0.071271017 0.52756369 2433839
-0.050181478 -0.071480453 0.52863789 2629935
-0.046405971 -0.071563616 0.52786338 2564394
-0.042644799 -0.071645722 0.52708375 2629935
-0.039712906 -0.071854144 0.5281527 1909544
-0.035973132 -0.07193476 0.52736527 1909544
-0.032247663 -0.072014332 0.52657253 2170163
-0.029330075 -0.072221756 0.52763629 1973540
-0.026412487 -0.072429165 0.52870011 1710368
-0.022715539 -0.072506726 0.527897 1710368
-0.019805104 -0.072713628 0.5289582 1512998
-0.016894639 -0.072920531 0.53001934 1709335
-0.0026158392 -0.071156681 0.50296003 2299675
0.001688987 -0.071092173 0.50022757 2828577
0.0044780374 -0.071290448 0.50124443 2566431
0.0072670579 -0.071488723 0.50226134 1975087
0.010056108 -0.071686998 0.50327826 2236712
0.012845129 -0.071885273 0.50429517 2892325
0.015634179 -0.072083548 0.50531203 2236183
0.018777132 -0.072214335 0.50538248 1841450
0.022263378 -0.07227692 0.50450259 1514286
0.025041699 -0.072474435 0.50551558 1449243
0.028506458 -0.072535485 0.50462782 1646372
0.031277657 -0.072732478 0.50563818 1250860
0.034721017 -0.072792009 0.50474268 1776411
0.037817568 -0.072919518 0.50479621 1446692
0.040578038 -0.073115766 0.50580269 725022
0.043338507 -0.073311999 0.50680918 1119780
0.045777187 -0.073578 0.5087738 1249817
0.048541218 -0.073774487 0.5097816 1052438
0.050675914 -0.074111506 0.51271093 920852
0.052824929 -0.074449554 0.5156455 789516
0.049452797 -0.076062456 0.53592628 789516
0.052302539 -0.076265037 0.53696531 657680
0.055152297 -0.076467633 0.53800434 920852
0.05800204 -0.076670215 0.53904337 1250067
0.060851783 -0.076872811 0.5400824 1446692
0.064280853 -0.076931328 0.53918171 1577499
0.067123443 -0.077133417 0.54021811 1642788
0.069966048 -0.077335492 0.54125452 1643292
0.073366582 -0.077391967 0.54034334 1710368
0.076202035 -0.07759355 0.54137719 1906714
0.079037502 -0.077795118 0.54241097 1906464
0.082409427 -0.077849567 0.54148942 1841198
0.08576709 -0.077902988 0.54056257 1841954
0.088588268 -0.078103557 0.54159117 1907243
0.091409445 -0.078304112 0.54261982 1775657
0.094230622 -0.078504667 0.54364842 1775657
0.097051799 -0.078705221 0.54467702 2037546
0.099872977 -0.078905791 0.54570568 2037546
0.10293739 -0.079031006 0.54574746 1972257
0.10575499 -0.079231307 0.5467748 1972507
0.1085726 -0.079431608 0.54780209 2038050
0.1113902 -0.07963191 0.54882944 2235179
0.1142078 -0.079832226 0.54985672 2105126
0.1174762 -0.079879314 0.54889739 2170669
0.1207303 -0.079925403 0.5479328 2170669
0.12353362 -0.080124691 0.5489549 2367015
0.12633695 -0.080323994 0.54997706 2367015
0.12956247 -0.080368012 0.54900205 2105126
0.13235864 -0.080566794 0.55002159 2039083
0.13515483 -0.080765575 0.55104107 2104876
0.137951 -0.080964357 0.5520606 1972784
0.14074717 -0.081163138 0.55308008 2038050
0.14354336 -0.08136192 0.55409962 1907747
0.14633954 -0.081560701 0.5551191 2039083
0.14913571 -0.081759483 0.55613863 1973540
0.15229698 -0.081798956 0.55514014 1907747
0.155086 -0.081997231 0.55615705 2039083
0.15787505 -0.082195505 0.55717397 2170163
0.16066407 -0.08239378 0.55819082 1907243
0.16345312 -0.082592055 0.55920774 1841954
0.16624215 -0.08279033 0.56022465 2103843
0.16903119 -0.082988605 0.56124157 1907747
0.17150514 -0.083349735 0.56429464 1776161
0.17460926 -0.083385155 0.56327534 2039083
0.17739829 -0.083583429 0.56429225 1973540
0.17989369 -0.083946079 0.56735313 1973540
0.18268985 -0.084144861 0.56837267 2103843
0.18548603 -0.084343642 0.56939214 2038050
0.18828222 -0.084542423 0.57041168 2038300
0.19107839 -0.084741205 0.57143116 1841954
0.19413252 -0.084773064 0.57039368 1776161
0.19692156 -0.084971339 0.57141054 1841450
0.19971058 -0.085169613 0.57242745 1710368
0.20249963 -0.085367888 0.57344437 2039083
0.20528866 -0.085566163 0.57446128 2497331
0.2081888 -0.085679695 0.57444316 2367015
0.21097425 -0.085877717 0.57545877 1283
-0.1710889 -0.063205451 0.52617884 1250860
-0.16800347 -0.063424796 0.52730381 2761271
-0.16651446 -0.063797131 0.5310722 2697011
-0.1618326 -0.063863486 0.52955377 2761773
-0.15664712 -0.063876852 0.52714384 2697513
-0.15357599 -0.064095184 0.52826363 2827827
-0.14946911 -0.064209491 0.52761078 2894122
-0.14537653 -0.064322799 0.52695268 2697513
-0.1412982 -0.06443508 0.52628934 2697261
-0.13672701 -0.064493582 0.52473056 2828345
-0.13268086 -0.064603582 0.52405554 2566958
-0.12964898 -0.064819112 0.52516103 2632249
-0.1266171 -0.065034658 0.52626646 2763054
-0.12358525 -0.065250188 0.52737188 2828345
-0.11957479 -0.065357655 0.52668387 2566958
-0.11460719 -0.065355539 0.52419448 2632501
-0.11063242 -0.065460443 0.52349341 2369843
-0.10667196 -0.065564364 0.52278715 2697011
-0.10367581 -0.065777361 0.52387959 2697011
-0.09973675 -0.065879747 0.52316546 2762552
-0.096747726 -0.066092238 0.52425528 2499884
-0.093758732 -0.066304728 0.52534509 2565425
-0.08984825 -0.066405058 0.52462059 2631468
-0.086866379 -0.066617042 0.52570778 2697011
-0.082977384 -0.066715896 0.52497554 2501165
-0.080002636 -0.066927373 0.5260601 2172716
-0.07613501 -0.067024693 0.52531993 2238257
-0.073167413 -0.067235649 0.52640194 2631218
-0.069321245 -0.067331433 0.52565402 2565425
-0.065489322 -0.06742619 0.52490085 2565175
-0.062536001 -0.067636147 0.52597767 2565425
-0.058725566 -0.067729384 0.5252167 2434091
-0.055779368 -0.067938834 0.52629089 2499632
-0.052833229 -0.068148285 0.52736509 2499632
-0.049887061 -0.068357721 0.52843928 2499632
-0.046112269 -0.068448439 0.52766526 2499632
-0.042351812 -0.068538129 0.52688611 2368048
-0.039419919 -0.068746567 0.52795511 2236712
-0.03568086 -0.068834722 0.5271681 2368298
-0.03275612 -0.069042638 0.52823448 2368298
-0.02983138 -0.069250554 0.52930087 1777960
-0.026120931 -0.069336712 0.52850342 1580331
-0.022424698 -0.069421813 0.52770078 1710368
-0.019514263 -0.069628716 0.52876198 1382952
-0.016603798 -0.069835633 0.52982312 1710618
-0.0023356974 -0.068185329 0.50277108 1643292
0.0012176633 -0.068260297 0.50191641 3354941
0.0040138364 -0.068459079 0.50293589 3549985
0.0068100095 -0.06865786 0.50395542 5456465
0.0096061826 -0.068856642 0.5049749 3282979
0.012402356 -0.069055423 0.50599444 3484467
0.01591289 -0.069127336 0.50512403 2696991
0.019055486 -0.069261923 0.50519472 3353133
0.022541016 -0.069332078 0.50431532 4273733
0.025319338 -0.069529593 0.5053283 2301472
0.028783381 -0.069598213 0.50444102 3750201
0.03155458 -0.069795206 0.50545138 3092800
0.034997225 -0.069862291 0.50455636 2828329
0.037761271 -0.070058793 0.50556415 3420984
0.040525317 -0.070255294 0.50657195 2172464
0.043289363 -0.070451781 0.50757968 1775657
0.046053395 -0.070648283 0.50858748 1972507
0.048817426 -0.070844784 0.50959527 2630187
0.050952837 -0.071174249 0.51252413 1381403
0.05248107 -0.071638167 0.51738191 790277
0.049737573 -0.073041916 0.53573418 461834
0.052587315 -0.073244497 0.5367732 855309
0.055437058 -0.073447093 0.53781223 1248784
0.058286801 -0.073649675 0.53885126 1511956
0.061136544 -0.073852271 0.53989035 1447196
0.064564914 -0.073918357 0.53899008 1381403
0.067407519 -0.074120432 0.54002649 1774878
0.070250109 -0.074322522 0.54106295 1774878
0.073649928 -0.074386567 0.54015219 1644575
0.076485381 -0.07458815 0.54118603 1710618
0.079863742 -0.07465066 0.54026753 1906464
0.082692057 -0.074851736 0.54129875 1709614
0.08604902 -0.074912727 0.54037237 1840671
0.088870183 -0.075113297 0.54140103 1578782
