# .PCD v0.7 - Point Cloud Data file format
VERSION 0.7
FIELDS x y z rgba
SIZE 4 4 4 4
TYPE F F F U
COUNT 1 1 1 1
WIDTH 1121
HEIGHT 1
VIEWPOINT 0 0 0 1 0 0 0
POINTS 1121
DATA ascii
0.088457145 -0.24473144 0.77400005 3025976
0.09140572 -0.24473144 0.77400005 2829628
0.094354294 -0.24473144 0.77400005 2829628
0.097177155 -0.24441525 0.77300006 2829880
0.10012191 -0.24441525 0.77300006 2698294
0.10306668 -0.24441525 0.77300006 2763835
0.10601144 -0.24441525 0.77300006 2763835
0.10867429 -0.24378286 0.77100003 2829880
0.11132191 -0.24315049 0.76900005 2894390
0.11425143 -0.24315049 0.76900005 2959931
0.11718096 -0.24315049 0.76900005 2698042
0.12011049 -0.24315049 0.76900005 2959931
0.12304001 -0.24315049 0.76900005 2959931
0.12596953 -0.24315049 0.76900005 2763835
0.12889905 -0.24315049 0.76900005 2894390
0.13182858 -0.24315049 0.76900005 2960183
0.1347581 -0.24315049 0.76900005 3091769
0.13768762 -0.24315049 0.76900005 3025976
0.14061715 -0.24315049 0.76900005 3091769
0.14354669 -0.24315049 0.76900005 2895923
0.14647621 -0.24315049 0.76900005 2961466
0.14940572 -0.24315049 0.76900005 2895421
0.15233524 -0.24315049 0.76900005 2895421
0.15526478 -0.24315049 0.76900005 2764087
0.15819429 -0.24315049 0.76900005 3025976
0.16112381 -0.24315049 0.76900005 2763333
0.16405334 -0.24315049 0.76900005 2894138
0.16698287 -0.24315049 0.76900005 2894138
0.1699124 -0.24315049 0.76900005 1975087
0.17239238 -0.2425181 0.76700002 2697011
0.17531429 -0.2425181 0.76700002 1318699
0.17870097 -0.24315049 0.76900005 2560
-0.15232 -0.26021335 0.83300006 16711422
-0.14914668 -0.26021335 0.83300006 16711422
-0.14562286 -0.2595886 0.83100003 8950417
-0.14245714 -0.2595886 0.83100003 660769
-0.13895619 -0.25896382 0.82900006 4076354
-0.13547048 -0.25833905 0.82700002 3749179
-0.132 -0.2577143 0.82500005 3816523
-0.12885715 -0.2577143 0.82500005 3947859
-0.12571429 -0.2577143 0.82500005 4078412
-0.12227429 -0.25708953 0.82300001 4078412
-0.11884953 -0.25646478 0.82100004 4078412
-0.1151581 -0.25521526 0.81700003 4012871
-0.11204571 -0.25521526 0.81700003 3947078
-0.10893334 -0.25521526 0.81700003 4012619
-0.10582096 -0.25521526 0.81700003 3946826
-0.10245715 -0.25459048 0.81500006 3946826
-0.09935239 -0.25459048 0.81500006 3880515
-0.09601143 -0.25396571 0.81300002 3814470
-0.092685722 -0.25334099 0.81100005 3749699
-0.089596197 -0.25334099 0.81100005 3683906
-0.086293332 -0.25271618 0.80900002 3355972
-0.083211429 -0.25271618 0.80900002 3355972
-0.079931431 -0.25209144 0.80700004 3290179
-0.076666676 -0.25146666 0.80500007 3552068
-0.073417149 -0.25084192 0.80300003 3224386
-0.070358098 -0.25084192 0.80300003 3486275
-0.067299046 -0.25084192 0.80300003 3288896
-0.064240001 -0.25084192 0.80300003 3223355
-0.061104763 -0.25052956 0.80200005 3289148
-0.058049526 -0.25052956 0.80200005 3223355
-0.054994289 -0.25052956 0.80200005 3223103
-0.051809523 -0.24990475 0.80000001 3223355
-0.048761904 -0.24990475 0.80000001 3223103
-0.045600001 -0.24928002 0.79800004 3223355
-0.042453337 -0.24865524 0.79600006 3157562
-0.039420955 -0.24865524 0.79600006 3157562
-0.036388576 -0.24865524 0.79600006 3157562
-0.033356193 -0.24865524 0.79600006 2895673
-0.030323811 -0.24865524 0.79600006 3091769
-0.027222859 -0.24803048 0.79400003 3025976
-0.024198096 -0.24803048 0.79400003 3091769
-0.021120002 -0.24740574 0.79200006 3222585
-0.018102858 -0.24740574 0.79200006 3288378
-0.015085715 -0.24740574 0.79200006 2959931
-0.012068572 -0.24740574 0.79200006 2698294
-0.0090514291 -0.24740574 0.79200006 2698294
-0.0060190479 -0.24678095 0.79000002 2698294
-0.003009524 -0.24678095 0.79000002 2894640
0 -0.24678095 0.79000002 2828597
0.003009524 -0.24678095 0.79000002 3025206
0.0060114288 -0.24646859 0.78900003 2828345
0.0090171434 -0.24646859 0.78900003 2894138
0.012022858 -0.24646859 0.78900003 2828345
0.014990478 -0.24584383 0.78700006 2762804
0.017942857 -0.24521905 0.78500003 2565175
0.020933334 -0.24521905 0.78500003 2827845
0.023862859 -0.24459429 0.78300005 2828345
0.026845716 -0.24459429 0.78300005 2827843
0.029828573 -0.24459429 0.78300005 2894138
0.032811433 -0.24459429 0.78300005 3025206
0.035702854 -0.24396951 0.78100002 3156540
0.038678095 -0.24396951 0.78100002 2828597
0.041653331 -0.24396951 0.78100002 2894390
0.044628572 -0.24396951 0.78100002 2698042
0.047603808 -0.24396951 0.78100002 2894138
0.050579049 -0.24396951 0.78100002 2698042
0.053485718 -0.24365716 0.78000003 2763333
0.056457143 -0.24365716 0.78000003 2959931
0.059276193 -0.2430324 0.77800006 2894390
0.062080003 -0.24240763 0.77600002 2959931
0.065036193 -0.24240763 0.77600002 2959931
0.067992382 -0.24240763 0.77600002 2763835
0.070948571 -0.24240763 0.77600002 2959931
0.073904768 -0.24240763 0.77600002 2959931
0.076662861 -0.24178286 0.77400005 2959931
0.079611428 -0.24178286 0.77400005 2764087
0.082560003 -0.24178286 0.77400005 2764087
0.085508578 -0.24178286 0.77400005 2764087
0.088457145 -0.24178286 0.77400005 2960433
0.09140572 -0.24178286 0.77400005 3025976
0.094354294 -0.24178286 0.77400005 3091517
0.097177155 -0.2414705 0.77300006 2829880
0.10012191 -0.2414705 0.77300006 2698294
0.10306668 -0.2414705 0.77300006 2632249
0.10601144 -0.2414705 0.77300006 2763835
0.1089562 -0.2414705 0.77300006 2764087
0.11132191 -0.24022098 0.76900005 2960183
0.11425143 -0.24022098 0.76900005 2894138
0.11718096 -0.24022098 0.76900005 2894138
0.12011049 -0.24022098 0.76900005 2828345
0.12304001 -0.24022098 0.76900005 2959931
0.12596953 -0.24022098 0.76900005 2960183
0.12889905 -0.24022098 0.76900005 2764087
0.13182858 -0.24022098 0.76900005 2829880
0.1347581 -0.24022098 0.76900005 2829880
0.13768762 -0.24022098 0.76900005 2960183
0.14061715 -0.24022098 0.76900005 2960183
0.14354669 -0.24022098 0.76900005 2829880
0.14647621 -0.24022098 0.76900005 3025976
0.14940572 -0.24022098 0.76900005 3025976
0.15233524 -0.24022098 0.76900005 2829628
0.15526478 -0.24022098 0.76900005 2764087
0.15819429 -0.24022098 0.76900005 3025976
0.16112381 -0.24022098 0.76900005 2959931
0.16405334 -0.24022098 0.76900005 2763333
0.16698287 -0.24022098 0.76900005 2698042
0.1699124 -0.24022098 0.76900005 2828345
0.17239238 -0.23959619 0.76700002 2433589
0.17531429 -0.23959619 0.76700002 2828597
0.17870097 -0.24022098 0.76900005 1252368
0.18163048 -0.24022098 0.76900005 3942912
-0.15232 -0.25704002 0.83300006 16711422
-0.14914668 -0.25704002 0.83300006 10921125
-0.14562286 -0.25642288 0.83100003 726312
-0.14245714 -0.25642288 0.83100003 3356474
-0.13895619 -0.25580573 0.82900006 3290179
-0.13579811 -0.25580573 0.82900006 4144205
-0.13232 -0.25518855 0.82700002 4406607
-0.12885715 -0.25457144 0.82500005 4209228
-0.12571429 -0.25457144 0.82500005 3946826
-0.12227429 -0.25395429 0.82300001 3947078
-0.11884953 -0.25333714 0.82100004 3947078
-0.1151581 -0.25210285 0.81700003 3881285
-0.11204571 -0.25210285 0.81700003 3946826
-0.10893334 -0.25210285 0.81700003 3881033
-0.10582096 -0.25210285 0.81700003 3881812
-0.10245715 -0.25148574 0.81500006 3619144
-0.09935239 -0.25148574 0.81500006 3814470
-0.096247621 -0.25148574 0.81500006 3683152
-0.092685722 -0.25025144 0.81100005 3552068
-0.089596197 -0.25025144 0.81100005 3420984
-0.086506672 -0.25025144 0.81100005 3486527
-0.083211429 -0.24963428 0.80900002 3224638
-0.079931431 -0.24901716 0.80700004 3485757
-0.076666676 -0.2484 0.80500007 3485757
-0.073417149 -0.24778286 0.80300003 3354689
-0.070358098 -0.24778286 0.80300003 3354941
-0.067299046 -0.24778286 0.80300003 3354941
-0.064240001 -0.24778286 0.80300003 3093052
-0.061104763 -0.2474743 0.80200005 3092019
-0.058049526 -0.2474743 0.80200005 3157562
-0.054994289 -0.2474743 0.80200005 3157310
-0.051809523 -0.24685715 0.80000001 3157562
-0.048761904 -0.24685715 0.80000001 3091517
-0.045600001 -0.24624 0.79800004 3025724
-0.042453337 -0.24562287 0.79600006 2960183
-0.039420955 -0.24562287 0.79600006 2959931
-0.036388576 -0.24562287 0.79600006 2829880
-0.033356193 -0.24562287 0.79600006 2829880
-0.030323811 -0.24562287 0.79600006 2960183
-0.02729143 -0.24562287 0.79600006 2960183
-0.024198096 -0.24500573 0.79400003 2764087
-0.021120002 -0.2443886 0.79200006 2894390
-0.018102858 -0.2443886 0.79200006 2894390
-0.015085715 -0.2443886 0.79200006 2698042
-0.012068572 -0.2443886 0.79200006 2894390
-0.0090514291 -0.2443886 0.79200006 2632501
-0.0060190479 -0.24377143 0.79000002 2828597
-0.003009524 -0.24377143 0.79000002 2893620
0 -0.24377143 0.79000002 2893620
0.003009524 -0.24377143 0.79000002 2762804
0.0060190479 -0.24377143 0.79000002 2762552
0.0090171434 -0.24346288 0.78900003 2828597
0.012022858 -0.24346288 0.78900003 2828345
0.015028572 -0.24346288 0.78900003 2631218
0.018034287 -0.24346288 0.78900003 2697011
0.020933334 -0.24222858 0.78500003 2500163
0.023862859 -0.24161144 0.78300005 2565175
0.026845716 -0.24161144 0.78300005 2762552
0.029828573 -0.24161144 0.78300005 2632249
0.032811433 -0.24161144 0.78300005 2828345
0.035794288 -0.24161144 0.78300005 2698042
0.038678095 -0.24099429 0.78100002 2698042
0.041653331 -0.24099429 0.78100002 2697290
0.044628572 -0.24099429 0.78100002 2632249
0.047603808 -0.24099429 0.78100002 2762552
0.050579049 -0.24099429 0.78100002 2697011
0.053485718 -0.24068573 0.78000003 2566456
0.056457143 -0.24068573 0.78000003 2894390
0.059276193 -0.24006858 0.77800006 2698042
0.062240005 -0.24006858 0.77800006 2698042
0.065036193 -0.23945144 0.77600002 2698042
0.067992382 -0.23945144 0.77600002 2894138
0.070948571 -0.23945144 0.77600002 2828345
0.073904768 -0.23945144 0.77600002 2894138
0.076860957 -0.23945144 0.77600002 2763835
0.079817139 -0.23945144 0.77600002 2632501
0.082560003 -0.23883429 0.77400005 2698294
0.085508578 -0.23883429 0.77400005 2894138
0.088457145 -0.23883429 0.77400005 2894390
0.09140572 -0.23883429 0.77400005 2828597
0.094354294 -0.23883429 0.77400005 2698042
0.097302862 -0.23883429 0.77400005 2764087
0.10025144 -0.23883429 0.77400005 2698294
0.10306668 -0.23852573 0.77300006 2698042
0.10601144 -0.23852573 0.77300006 2698042
0.1089562 -0.23852573 0.77300006 2894138
0.11161143 -0.23790859 0.77100003 2698042
0.11454857 -0.23790859 0.77100003 2828345
0.11718096 -0.23729144 0.76900005 2827843
0.12011049 -0.23729144 0.76900005 2894138
0.12304001 -0.23729144 0.76900005 2894390
0.12596953 -0.23729144 0.76900005 2894138
0.12889905 -0.23729144 0.76900005 2763835
0.13182858 -0.23729144 0.76900005 3091517
0.1347581 -0.23729144 0.76900005 2960183
0.13768762 -0.23729144 0.76900005 2960183
0.14061715 -0.23729144 0.76900005 2829628
0.14354669 -0.23729144 0.76900005 2895421
0.14647621 -0.23729144 0.76900005 2829880
0.14940572 -0.23729144 0.76900005 2763835
0.15233524 -0.23729144 0.76900005 2829628
0.15526478 -0.23729144 0.76900005 2829628
0.15819429 -0.23729144 0.76900005 2763835
0.16112381 -0.23729144 0.76900005 2894138
0.16405334 -0.23729144 0.76900005 2697290
0.16698287 -0.23729144 0.76900005 2894138
0.1699124 -0.23729144 0.76900005 2959163
0.17239238 -0.23667429 0.76700002 2631218
0.17531429 -0.23667429 0.76700002 2434091
0.17870097 -0.23729144 0.76900005 2894138
0.1811581 -0.23667429 0.76700002 461568
0.18408 -0.23667429 0.76700002 8484691
-0.15268572 -0.25447619 0.83500004 13552327
-0.14914668 -0.2538667 0.83300006 1292
-0.14597335 -0.2538667 0.83300006 3880765
-0.14280002 -0.2538667 0.83300006 3619144
-0.13929144 -0.25325716 0.83100003 4145740
-0.13579811 -0.25264764 0.82900006 4341838
-0.13232 -0.25203812 0.82700002 4079695
-0.12885715 -0.25142857 0.82500005 4078412
-0.12571429 -0.25142857 0.82500005 3750730
-0.12227429 -0.25081906 0.82300001 3684937
-0.11913905 -0.25081906 0.82300001 3947078
-0.11544001 -0.24960001 0.81900007 3947078
-0.11204571 -0.24899048 0.81700003 3881033
-0.10893334 -0.24899048 0.81700003 3946056
-0.10556191 -0.24838097 0.81500006 3880263
-0.10245715 -0.24838097 0.81500006 3487558
-0.09935239 -0.24838097 0.81500006 3552068
-0.096247621 -0.24838097 0.81500006 3485773
-0.09314286 -0.24838097 0.81500006 3486275
-0.089817151 -0.24777143 0.81300002 3290681
-0.086506672 -0.24716192 0.81100005 3290179
-0.083417147 -0.24716192 0.81100005 3093052
-0.080129527 -0.24655238 0.80900002 3158845
-0.076666676 -0.24533336 0.80500007 3289398
-0.073417149 -0.24472383 0.80300003 3027259
-0.070358098 -0.24472383 0.80300003 3223605
-0.067299046 -0.24472383 0.80300003 3223605
-0.064240001 -0.24472383 0.80300003 3157812
-0.061104763 -0.24441905 0.80200005 2960433
-0.058049526 -0.24441905 0.80200005 3091769
-0.054994289 -0.24441905 0.80200005 2959931
-0.051809523 -0.24380952 0.80000001 3025976
-0.048761904 -0.24380952 0.80000001 2829880
-0.045600001 -0.24320002 0.79800004 2959931
-0.042560004 -0.24320002 0.79800004 2960183
-0.039520003 -0.24320002 0.79800004 2764087
-0.036480002 -0.24320002 0.79800004 2764337
-0.033356193 -0.24259049 0.79600006 2698294
-0.030323811 -0.24259049 0.79600006 2762804
-0.02729143 -0.24259049 0.79600006 2828345
-0.024198096 -0.24198097 0.79400003 2828345
-0.021120002 -0.24137144 0.79200006 2894138
-0.018102858 -0.24137144 0.79200006 2894390
-0.015085715 -0.24137144 0.79200006 2632249
-0.012099048 -0.24198097 0.79400003 2303800
-0.0090742856 -0.24198097 0.79400003 2696761
-0.0060190479 -0.24076191 0.79000002 2630968
-0.003009524 -0.24076191 0.79000002 2827064
0 -0.24076191 0.79000002 2697011
0.003009524 -0.24076191 0.79000002 2697011
0.0060190479 -0.24076191 0.79000002 2697011
0.0090285717 -0.24076191 0.79000002 2697011
0.012022858 -0.24045715 0.78900003 2369843
0.015028572 -0.24045715 0.78900003 2501165
0.018034287 -0.24045715 0.78900003 2303800
0.020933334 -0.2392381 0.78500003 2499884
0.023862859 -0.23862858 0.78300005 2434370
0.026845716 -0.23862858 0.78300005 2107704
0.029828573 -0.23862858 0.78300005 2566456
0.032811433 -0.23862858 0.78300005 2828345
0.035794288 -0.23862858 0.78300005 2828345
0.038678095 -0.23801906 0.78100002 2959931
0.041653331 -0.23801906 0.78100002 2828345
0.044628572 -0.23801906 0.78100002 2565175
0.047603808 -0.23801906 0.78100002 2697011
0.050579049 -0.23801906 0.78100002 2565175
0.053485718 -0.23771429 0.78000003 2762552
0.056457143 -0.23771429 0.78000003 2697011
0.059428573 -0.23771429 0.78000003 2632501
0.062400002 -0.23771429 0.78000003 2632751
0.065203816 -0.23710477 0.77800006 2698294
0.067992382 -0.23649524 0.77600002 2763835
0.070948571 -0.23649524 0.77600002 2632249
0.073904768 -0.23649524 0.77600002 2632249
0.076860957 -0.23649524 0.77600002 2632249
0.079817139 -0.23649524 0.77600002 2632501
0.082773335 -0.23649524 0.77600002 2762552
0.085729532 -0.23649524 0.77600002 2762552
0.088457145 -0.23588574 0.77400005 2630968
0.09140572 -0.23588574 0.77400005 2762804
0.094354294 -0.23588574 0.77400005 2762552
0.097177155 -0.23558097 0.77300006 2762552
0.10012191 -0.23558097 0.77300006 2630968
0.10306668 -0.23558097 0.77300006 2894138
0.10601144 -0.23558097 0.77300006 2631747
0.1089562 -0.23558097 0.77300006 2632249
0.11190096 -0.23558097 0.77300006 2632249
0.11484572 -0.23558097 0.77300006 2630968
0.11748572 -0.23497143 0.77100003 2696259
0.12042286 -0.23497143 0.77100003 2762804
0.12304001 -0.23436192 0.76900005 2894390
0.12596953 -0.23436192 0.76900005 2894390
0.12889905 -0.23436192 0.76900005 2697011
0.13182858 -0.23436192 0.76900005 2828345
0.1347581 -0.23436192 0.76900005 2960183
0.13768762 -0.23436192 0.76900005 3025206
0.14061715 -0.23436192 0.76900005 2959931
0.14354669 -0.23436192 0.76900005 2763835
0.14647621 -0.23436192 0.76900005 2568248
0.14940572 -0.23436192 0.76900005 2763835
0.15233524 -0.23436192 0.76900005 2959931
0.15526478 -0.23436192 0.76900005 2894390
0.15819429 -0.23436192 0.76900005 2959931
0.16112381 -0.23436192 0.76900005 2894138
0.16405334 -0.23436192 0.76900005 2959931
0.16698287 -0.23436192 0.76900005 2894138
0.1699124 -0.23436192 0.76900005 2762804
0.17284191 -0.23436192 0.76900005 2631218
0.17577145 -0.23436192 0.76900005 2368298
0.17870097 -0.23436192 0.76900005 2827314
0.1811581 -0.23375238 0.76700002 1909044
0.18408 -0.23375238 0.76700002 1443072
-0.16019048 -0.25310096 0.84100002 16711422
-0.15624 -0.25189716 0.83700001 15724525
-0.15268572 -0.25129524 0.83500004 4065536
-0.14950477 -0.25129524 0.83500004 2963006
-0.14597335 -0.25069335 0.83300006 3751232
-0.14280002 -0.25069335 0.83300006 4013902
-0.13962668 -0.25069335 0.83300006 4342865
-0.13612571 -0.25009143 0.83100003 4145488
-0.13264 -0.24948955 0.82900006 4079191
-0.12916952 -0.24888761 0.82700002 4078412
-0.12571429 -0.24828573 0.82500005 4012619
-0.12257144 -0.24828573 0.82500005 3946826
-0.11913905 -0.24768379 0.82300001 3946826
-0.11544001 -0.24648002 0.81900007 3684937
-0.11204571 -0.24587809 0.81700003 3487056
-0.10893334 -0.24587809 0.81700003 3421765
-0.10556191 -0.2452762 0.81500006 3683654
-0.10245715 -0.2452762 0.81500006 3486275
-0.09935239 -0.2452762 0.81500006 3354689
-0.096247621 -0.2452762 0.81500006 3354689
-0.09314286 -0.2452762 0.81500006 3354941
-0.089817151 -0.2446743 0.81300002 3354941
-0.086506672 -0.24407238 0.81100005 3288896
-0.083417147 -0.24407238 0.81100005 3288896
-0.080129527 -0.24347049 0.80900002 3093052
-0.07685715 -0.24286857 0.80700004 2961466
-0.073600002 -0.24226668 0.80500007 2895673
-0.070533335 -0.24226668 0.80500007 3091249
-0.067299046 -0.24166478 0.80300003 3222835
-0.064240001 -0.24166478 0.80300003 2829880
-0.061180957 -0.24166478 0.80300003 2960183
-0.058049526 -0.24136381 0.80200005 3157562
-0.054994289 -0.24136381 0.80200005 2959931
-0.051939052 -0.24136381 0.80200005 2960183
-0.048761904 -0.24076191 0.80000001 2698294
-0.045714285 -0.24076191 0.80000001 2698042
-0.042666666 -0.24076191 0.80000001 2960183
-0.039619051 -0.24076191 0.80000001 2698294
-0.036480002 -0.24016002 0.79800004 2828847
-0.033440001 -0.24016002 0.79800004 2894138
-0.030400002 -0.24016002 0.79800004 2828345
-0.02729143 -0.23955812 0.79600006 2827843
-0.024198096 -0.2389562 0.79400003 2762552
-0.021173334 -0.2389562 0.79400003 2631747
-0.018148571 -0.2389562 0.79400003 2632501
-0.015123811 -0.2389562 0.79400003 2369843
-0.012099048 -0.2389562 0.79400003 2369843
-0.0090742856 -0.2389562 0.79400003 2762552
-0.0060342862 -0.2383543 0.79200006 2827314
-0.003009524 -0.23775238 0.79000002 2761521
0 -0.23775238 0.79000002 2565425
0.003009524 -0.23775238 0.79000002 2303800
0.0060190479 -0.23775238 0.79000002 2238007
0.0090285717 -0.23775238 0.79000002 2630968
0.012038096 -0.23775238 0.79000002 2695728
0.015028572 -0.23745143 0.78900003 2565425
0.018034287 -0.23745143 0.78900003 2565175
0.020933334 -0.23624763 0.78500003 2761773
0.023923811 -0.23624763 0.78500003 2565175
0.026845716 -0.23564573 0.78300005 2303800
0.029828573 -0.23564573 0.78300005 2500665
0.032811433 -0.23564573 0.78300005 2500665
0.035794288 -0.23564573 0.78300005 2303800
0.038777146 -0.23564573 0.78300005 2632249
0.041653331 -0.23504381 0.78100002 2500665
0.044628572 -0.23504381 0.78100002 2697011
0.047603808 -0.23504381 0.78100002 2697261
0.050579049 -0.23504381 0.78100002 2761271
0.053554289 -0.23504381 0.78100002 2630968
0.056457143 -0.23474286 0.78000003 2762804
0.059428573 -0.23474286 0.78000003 2828597
0.062400002 -0.23474286 0.78000003 2304556
0.065203816 -0.23414098 0.77800006 2632501
0.067992382 -0.23353904 0.77600002 2632249
0.070948571 -0.23353904 0.77600002 2631497
0.073904768 -0.23353904 0.77600002 2630968
0.076860957 -0.23353904 0.77600002 2762552
0.079817139 -0.23353904 0.77600002 2697011
0.082773335 -0.23353904 0.77600002 2762552
0.085729532 -0.23353904 0.77600002 2630968
0.088457145 -0.23293716 0.77400005 2762552
0.09140572 -0.23293716 0.77400005 2565175
0.094354294 -0.23293716 0.77400005 2565425
0.097177155 -0.23263621 0.77300006 2762052
0.10012191 -0.23263621 0.77300006 2566456
0.10306668 -0.23263621 0.77300006 2762552
0.10601144 -0.23263621 0.77300006 2500665
0.1089562 -0.23263621 0.77300006 2762552
0.11190096 -0.23263621 0.77300006 2762552
0.11484572 -0.23263621 0.77300006 2762804
0.11748572 -0.23203428 0.77100003 2827064
0.12042286 -0.23203428 0.77100003 2697011
0.12304001 -0.23143239 0.76900005 2828597
0.12596953 -0.23143239 0.76900005 2828597
0.12889905 -0.23143239 0.76900005 2828847
0.13182858 -0.23143239 0.76900005 2632501
0.1347581 -0.23143239 0.76900005 2698294
0.13768762 -0.23143239 0.76900005 2698294
0.14061715 -0.23143239 0.76900005 2763835
0.14354669 -0.23143239 0.76900005 2764087
0.14647621 -0.23143239 0.76900005 2632751
0.14940572 -0.23143239 0.76900005 2763835
0.15233524 -0.23143239 0.76900005 2698042
0.15526478 -0.23143239 0.76900005 2632501
0.15819429 -0.23143239 0.76900005 2698294
0.16112381 -0.23143239 0.76900005 2894138
0.16405334 -0.23143239 0.76900005 2959931
0.16698287 -0.23143239 0.76900005 2959931
0.17035429 -0.23203428 0.77100003 2894390
0.17284191 -0.23143239 0.76900005 2828847
0.17577145 -0.23143239 0.76900005 2304050
0.17870097 -0.23143239 0.76900005 2106421
0.1811581 -0.23083048 0.76700002 2762552
0.18384001 -0.23052953 0.76600003 593420
0.1867581 -0.23052953 0.76600003 6971418
-0.16019048 -0.24989714 0.84100002 16645629
-0.15624 -0.24870858 0.83700001 7638398
-0.15268572 -0.2481143 0.83500004 1581333
-0.14950477 -0.2481143 0.83500004 4079166
-0.14597335 -0.24752003 0.83300006 4078664
-0.14280002 -0.24752003 0.83300006 4144205
-0.13962668 -0.24752003 0.83300006 4210518
-0.13612571 -0.24692571 0.83100003 3752270
-0.13264 -0.24633144 0.82900006 4079445
-0.12916952 -0.24573715 0.82700002 3948109
-0.12571429 -0.24514288 0.82500005 4012871
-0.12257144 -0.24514288 0.82500005 3815492
-0.11913905 -0.24454857 0.82300001 3815240
-0.1157219 -0.24395429 0.82100004 3815492
-0.11232001 -0.24336001 0.81900007 3815240
-0.10893334 -0.24276572 0.81700003 3487558
-0.10582096 -0.24276572 0.81700003 3224386
-0.10270857 -0.24276572 0.81700003 3420482
-0.099596195 -0.24276572 0.81700003 3289398
-0.096247621 -0.24217144 0.81500006 3093052
-0.09314286 -0.24217144 0.81500006 3157812
-0.089817151 -0.24157715 0.81300002 3027259
-0.086719997 -0.24157715 0.81300002 3091517
-0.083417147 -0.24098286 0.81100005 3157310
-0.080129527 -0.24038857 0.80900002 2961214
-0.07685715 -0.2397943 0.80700004 2764873
-0.073782854 -0.2397943 0.80700004 2961214
-0.070533335 -0.23920001 0.80500007 2895673
-0.067299046 -0.23860572 0.80300003 3025976
-0.064240001 -0.23860572 0.80300003 2960183
-0.061180957 -0.23860572 0.80300003 2894390
-0.058121908 -0.23860572 0.80300003 3090999
-0.054994289 -0.23830858 0.80200005 2959931
-0.051939052 -0.23830858 0.80200005 2764087
-0.048883811 -0.23830858 0.80200005 2632501
-0.045714285 -0.23771429 0.80000001 2894138
-0.042666666 -0.23771429 0.80000001 2697011
-0.039619051 -0.23771429 0.80000001 2894138
-0.036571428 -0.23771429 0.80000001 3091249
-0.033523809 -0.23771429 0.80000001 3091517
-0.030400002 -0.23712002 0.79800004 2566456
-0.02729143 -0.23652573 0.79600006 2500665
-0.024259049 -0.23652573 0.79600006 2696761
-0.021173334 -0.23593144 0.79400003 2630968
-0.018148571 -0.23593144 0.79400003 2238759
-0.015123811 -0.23593144 0.79400003 2304050
-0.012099048 -0.23593144 0.79400003 2304050
-0.0090742856 -0.23593144 0.79400003 2303800
-0.0060190479 -0.23474286 0.79000002 2565425
-0.003009524 -0.23474286 0.79000002 2499632
0 -0.23474286 0.79000002 2499382
0.003009524 -0.23474286 0.79000002 2565425
0.0060190479 -0.23474286 0.79000002 2631218
0.0090285717 -0.23474286 0.79000002 2696761
0.012038096 -0.23474286 0.79000002 2499632
0.015028572 -0.23444572 0.78900003 2631218
0.018034287 -0.23444572 0.78900003 2565175
0.020933334 -0.23325716 0.78500003 2565425
0.023923811 -0.23325716 0.78500003 2172464
0.026845716 -0.23266287 0.78300005 2368577
0.029828573 -0.23266287 0.78300005 2303800
0.032811433 -0.23266287 0.78300005 2697011
0.035794288 -0.23266287 0.78300005 2697011
0.038777146 -0.23266287 0.78300005 2697261
0.041760001 -0.23266287 0.78300005 2500665
0.04474286 -0.23266287 0.78300005 2304050
0.047603808 -0.23206858 0.78100002 2499632
0.050579049 -0.23206858 0.78100002 2434091
0.053554289 -0.23206858 0.78100002 2565175
0.056457143 -0.23177144 0.78000003 2566708
0.059428573 -0.23177144 0.78000003 2369843
0.062400002 -0.23177144 0.78000003 2500665
0.065036193 -0.23058285 0.77600002 2500665
0.067992382 -0.23058285 0.77600002 2368577
0.070948571 -0.23058285 0.77600002 2565954
0.073904768 -0.23058285 0.77600002 2632249
0.076860957 -0.23058285 0.77600002 2894390
0.079817139 -0.23058285 0.77600002 2762804
0.082773335 -0.23058285 0.77600002 2762052
0.085729532 -0.23058285 0.77600002 2762804
0.088685714 -0.23058285 0.77600002 2697011
0.091641903 -0.23058285 0.77600002 2696761
0.094354294 -0.22998859 0.77400005 2697011
0.097302862 -0.22998859 0.77400005 2632249
0.10025144 -0.22998859 0.77400005 2762804
0.1032 -0.22998859 0.77400005 2697011
0.10614858 -0.22998859 0.77400005 2828597
0.1089562 -0.22969145 0.77300006 2697011
0.11190096 -0.22969145 0.77300006 2762804
0.11484572 -0.22969145 0.77300006 2697011
0.11779048 -0.22969145 0.77300006 2827845
0.12042286 -0.22909714 0.77100003 2369843
0.12336 -0.22909714 0.77100003 2566456
0.12629715 -0.22909714 0.77100003 2696761
0.12923428 -0.22909714 0.77100003 2894390
0.13217142 -0.22909714 0.77100003 2828597
0.13510858 -0.22909714 0.77100003 2828597
0.13768762 -0.22850287 0.76900005 2894390
0.14061715 -0.22850287 0.76900005 2894138
0.14354669 -0.22850287 0.76900005 2894390
0.14647621 -0.22850287 0.76900005 2960183
0.14940572 -0.22850287 0.76900005 2763333
0.15233524 -0.22850287 0.76900005 2894138
0.15526478 -0.22850287 0.76900005 2762804
0.15819429 -0.22850287 0.76900005 2566708
0.16112381 -0.22850287 0.76900005 2762552
0.16448 -0.22909714 0.77100003 2827843
0.16741715 -0.22909714 0.77100003 2828345
0.17035429 -0.22909714 0.77100003 2894390
0.17329143 -0.22909714 0.77100003 2894390
0.17622858 -0.22909714 0.77100003 2762804
0.17870097 -0.22850287 0.76900005 2369843
0.1811581 -0.22790857 0.76700002 2697011
0.18384001 -0.22761144 0.76600003 2040628
0.18627049 -0.22701715 0.76400006 262656
0.18918097 -0.22701715 0.76400006 14801628
-0.16019048 -0.24669334 0.84100002 7563679
-0.15624 -0.24551998 0.83700001 2958118
-0.15268572 -0.24493335 0.83500004 3619646
-0.14950477 -0.24493335 0.83500004 3554105
-0.14632381 -0.24493335 0.83500004 4078664
-0.14314286 -0.24493335 0.83500004 4275021
-0.13962668 -0.24434669 0.83300006 4406607
-0.13612571 -0.24376 0.83100003 4144457
-0.13264 -0.24317335 0.82900006 4078412
-0.12916952 -0.24258667 0.82700002 4209480
-0.12571429 -0.24200001 0.82500005 4078144
-0.12257144 -0.24200001 0.82500005 3881285
-0.11913905 -0.24141334 0.82300001 3619144
-0.1157219 -0.24082668 0.82100004 3619396
-0.11232001 -0.24024001 0.81900007 3422017
-0.10893334 -0.23965335 0.81700003 3486777
-0.10582096 -0.23965335 0.81700003 3290431
-0.10270857 -0.23965335 0.81700003 3158845
-0.099596195 -0.23965335 0.81700003 3223605
-0.096247621 -0.23906668 0.81500006 3223355
-0.09314286 -0.23906668 0.81500006 3092019
-0.089817151 -0.23848 0.81300002 3354171
-0.086719997 -0.23848 0.81300002 3419964
-0.083417147 -0.23789334 0.81100005 2895421
-0.080327623 -0.23789334 0.81100005 2895421
-0.07685715 -0.23672001 0.80700004 2894919
-0.073782854 -0.23672001 0.80700004 2763835
-0.070533335 -0.23613335 0.80500007 2764087
-0.067299046 -0.23554666 0.80300003 2764087
-0.064240001 -0.23554666 0.80300003 2960183
-0.061180957 -0.23554666 0.80300003 2894390
-0.058121908 -0.23554666 0.80300003 2894390
-0.055062857 -0.23554666 0.80300003 2960183
-0.051939052 -0.23525335 0.80200005 2698294
-0.048883811 -0.23525335 0.80200005 2828847
-0.045828573 -0.23525335 0.80200005 2828597
-0.042666666 -0.23466668 0.80000001 2894390
-0.039619051 -0.23466668 0.80000001 2632249
-0.036480002 -0.23408 0.79800004 2697011
-0.033440001 -0.23408 0.79800004 2894390
-0.030400002 -0.23408 0.79800004 2894390
-0.02736 -0.23408 0.79800004 2697011
-0.024259049 -0.23349334 0.79600006 2761271
-0.021226669 -0.23349334 0.79600006 2631218
-0.018148571 -0.23290667 0.79400003 2762023
-0.015123811 -0.23290667 0.79400003 2697261
-0.012099048 -0.23290667 0.79400003 2304050
-0.0090742856 -0.23290667 0.79400003 2238007
-0.0060190479 -0.23173334 0.79000002 2172464
-0.003009524 -0.23173334 0.79000002 2434091
0 -0.23173334 0.79000002 2499382
0.003009524 -0.23173334 0.79000002 2565425
0.0060190479 -0.23173334 0.79000002 2565425
0.0090285717 -0.23173334 0.79000002 2565425
0.012038096 -0.23173334 0.79000002 2499884
0.015028572 -0.23144001 0.78900003 2565425
0.018034287 -0.23144001 0.78900003 2565675
0.02104 -0.23144001 0.78900003 2565675
0.024045715 -0.23144001 0.78900003 2499884
0.02705143 -0.23144001 0.78900003 2368577
0.029904762 -0.23026668 0.78500003 2565425
0.032811433 -0.22968002 0.78300005 2565425
0.035794288 -0.22968002 0.78300005 2565425
0.038777146 -0.22968002 0.78300005 2433839
0.041760001 -0.22968002 0.78300005 2303800
0.04474286 -0.22968002 0.78300005 2106421
0.047603808 -0.22909333 0.78100002 2172464
0.050579049 -0.22909333 0.78100002 2695980
0.053554289 -0.22909333 0.78100002 2499632
0.056529526 -0.22909333 0.78100002 2564160
0.059504766 -0.22909333 0.78100002 2499632
0.062400002 -0.2288 0.78000003 2630968
0.065036193 -0.22762668 0.77600002 2500665
0.067992382 -0.22762668 0.77600002 2761271
0.070948571 -0.22762668 0.77600002 2696761
0.073904768 -0.22762668 0.77600002 2303800
0.076860957 -0.22762668 0.77600002 2369843
0.079817139 -0.22762668 0.77600002 2697011
0.082773335 -0.22762668 0.77600002 2500163
0.085729532 -0.22762668 0.77600002 2500665
0.088685714 -0.22762668 0.77600002 2697011
0.09140572 -0.22704001 0.77400005 2630968
0.094354294 -0.22704001 0.77400005 2697011
0.097302862 -0.22704001 0.77400005 2500665
0.10025144 -0.22704001 0.77400005 2369843
0.1032 -0.22704001 0.77400005 2304556
0.10614858 -0.22704001 0.77400005 2566456
0.1089562 -0.22674668 0.77300006 2304050
0.11190096 -0.22674668 0.77300006 2566708
0.11484572 -0.22674668 0.77300006 2632501
0.11779048 -0.22674668 0.77300006 2631747
0.12042286 -0.22616 0.77100003 2632249
0.12336 -0.22616 0.77100003 2762052
0.12629715 -0.22616 0.77100003 2762552
0.12923428 -0.22616 0.77100003 2762052
0.13217142 -0.22616 0.77100003 2632249
0.13510858 -0.22616 0.77100003 2631747
0.13768762 -0.22557335 0.76900005 2698294
0.14061715 -0.22557335 0.76900005 2698294
0.14354669 -0.22557335 0.76900005 2894138
0.14647621 -0.22557335 0.76900005 2960183
0.14940572 -0.22557335 0.76900005 2763333
0.15233524 -0.22557335 0.76900005 2763835
0.15526478 -0.22557335 0.76900005 2698042
0.15819429 -0.22557335 0.76900005 2894390
0.16112381 -0.22557335 0.76900005 3025206
0.16448 -0.22616 0.77100003 3089734
0.16741715 -0.22616 0.77100003 2828345
0.17035429 -0.22616 0.77100003 2828345
0.17329143 -0.22616 0.77100003 2762552
0.17622858 -0.22616 0.77100003 2696259
0.17916572 -0.22616 0.77100003 2697011
0.18163048 -0.22557335 0.76900005 2040878
0.18408 -0.22498667 0.76700002 2630968
0.18627049 -0.22410667 0.76400006 772
0.18918097 -0.22410667 0.76400006 10061154
-0.16378286 -0.24406858 0.84300005 3883093
-0.16019048 -0.24348952 0.84100002 5658198
-0.15661335 -0.24291049 0.83900005 3881285
-0.15305144 -0.24233143 0.83700001 3749447
-0.14986286 -0.24233143 0.83700001 4078412
-0.14632381 -0.24175239 0.83500004 4078412
-0.14280002 -0.24117336 0.83300006 4144205
-0.13962668 -0.24117336 0.83300006 4078412
-0.13612571 -0.2405943 0.83100003 3750982
-0.13232 -0.23943619 0.82700002 3882568
-0.12916952 -0.23943619 0.82700002 3815240
-0.12601906 -0.23943619 0.82700002 3749949
-0.12257144 -0.23885716 0.82500005 3815240
-0.11913905 -0.23827809 0.82300001 3749699
-0.1157219 -0.23769906 0.82100004 3356224
-0.11232001 -0.23712002 0.81900007 3552320
-0.10920001 -0.23712002 0.81900007 3420734
-0.10582096 -0.23654096 0.81700003 3290431
-0.10270857 -0.23654096 0.81700003 3159095
-0.099596195 -0.23654096 0.81700003 3158845
-0.096247621 -0.23596191 0.81500006 3027259
-0.09314286 -0.23596191 0.81500006 2961466
-0.089817151 -0.23538285 0.81300002 2895673
-0.086719997 -0.23538285 0.81300002 3091769
-0.083417147 -0.23480383 0.81100005 2763835
-0.080327623 -0.23480383 0.81100005 2698294
-0.07685715 -0.23364572 0.80700004 2698042
-0.073782854 -0.23364572 0.80700004 2698294
-0.070533335 -0.23306668 0.80500007 2369843
-0.067466669 -0.23306668 0.80500007 2894390
-0.064400002 -0.23306668 0.80500007 2894390
-0.061180957 -0.23248763 0.80300003 2960183
-0.058121908 -0.23248763 0.80300003 2894390
-0.055062857 -0.23248763 0.80300003 2828597
-0.051939052 -0.2321981 0.80200005 2632249
-0.048883811 -0.2321981 0.80200005 2304050
-0.045828573 -0.2321981 0.80200005 2500665
-0.042666666 -0.23161905 0.80000001 2304050
-0.039619051 -0.23161905 0.80000001 2304050
-0.036480002 -0.23104 0.79800004 2499632
-0.033440001 -0.23104 0.79800004 2631218
-0.030323811 -0.23046097 0.79600006 2697011
-0.02729143 -0.23046097 0.79600006 2697261
-0.024259049 -0.23046097 0.79600006 2566456
-0.021226669 -0.23046097 0.79600006 2499632
-0.018148571 -0.22988191 0.79400003 2499884
-0.015123811 -0.22988191 0.79400003 2108206
-0.012099048 -0.22988191 0.79400003 1911088
-0.0090742856 -0.22988191 0.79400003 2238257
-0.0060342862 -0.22930287 0.79200006 2172464
-0.0030171431 -0.22930287 0.79200006 2172464
0 -0.22930287 0.79200006 2172214
0.0030171431 -0.22930287 0.79200006 2565175
0.0060190479 -0.22872381 0.79000002 2631468
0.0090285717 -0.22872381 0.79000002 2304050
0.012038096 -0.22872381 0.79000002 2172464
0.015028572 -0.22843429 0.78900003 2499884
0.018034287 -0.22843429 0.78900003 2499632
0.02104 -0.22843429 0.78900003 2499884
0.024045715 -0.22843429 0.78900003 2304050
0.02705143 -0.22843429 0.78900003 2303800
0.029904762 -0.22727621 0.78500003 2565425
0.032811433 -0.22669715 0.78300005 2565425
0.035794288 -0.22669715 0.78300005 2302255
0.038777146 -0.22669715 0.78300005 2433589
0.041760001 -0.22669715 0.78300005 2172214
0.044857144 -0.22727621 0.78500003 2499632
0.047847621 -0.22727621 0.78500003 2499632
0.050708573 -0.22669715 0.78300005 2499632
0.053554289 -0.2261181 0.78100002 2172464
0.056529526 -0.2261181 0.78100002 2303800
0.059504766 -0.2261181 0.78100002 2304050
0.062480003 -0.2261181 0.78100002 2564160
0.065203816 -0.22524954 0.77800006 2565425
0.067992382 -0.22467048 0.77600002 2500665
0.070948571 -0.22467048 0.77600002 2238007
0.074095242 -0.22524954 0.77800006 2303800
0.077059053 -0.22524954 0.77800006 2304050
0.079817139 -0.22467048 0.77600002 2303800
0.082773335 -0.22467048 0.77600002 2238257
0.085729532 -0.22467048 0.77600002 2304050
0.088685714 -0.22467048 0.77600002 2303800
0.09140572 -0.22409144 0.77400005 2238257
0.094354294 -0.22409144 0.77400005 2304050
0.097302862 -0.22409144 0.77400005 2303800
0.10025144 -0.22409144 0.77400005 2631218
0.1032 -0.22409144 0.77400005 2238509
0.10614858 -0.22409144 0.77400005 2500665
0.10909715 -0.22409144 0.77400005 2500665
0.11204572 -0.22409144 0.77400005 2632249
0.11484572 -0.22380193 0.77300006 2632249
0.11779048 -0.22380193 0.77300006 2566708
0.12073525 -0.22380193 0.77300006 2631468
0.12336 -0.22322285 0.77100003 2696761
0.12629715 -0.22322285 0.77100003 2565175
0.12923428 -0.22322285 0.77100003 2762052
0.13217142 -0.22322285 0.77100003 2500665
0.13510858 -0.22322285 0.77100003 2500163
0.13804571 -0.22322285 0.77100003 2566708
0.14098287 -0.22322285 0.77100003 2632501
0.14354669 -0.22264382 0.76900005 2959429
0.14647621 -0.22264382 0.76900005 2894390
0.14940572 -0.22264382 0.76900005 2698294
0.15233524 -0.22264382 0.76900005 2894390
0.15526478 -0.22264382 0.76900005 2632501
0.15819429 -0.22264382 0.76900005 2632501
0.16154286 -0.22322285 0.77100003 2698294
0.16448 -0.22322285 0.77100003 2566456
0.16741715 -0.22322285 0.77100003 2762804
0.17035429 -0.22322285 0.77100003 2697011
0.17329143 -0.22322285 0.77100003 2500665
0.17622858 -0.22322285 0.77100003 2500665
0.17916572 -0.22322285 0.77100003 2697011
0.18163048 -0.22264382 0.76900005 2565425
0.18408 -0.22206476 0.76700002 2499884
0.18627049 -0.2211962 0.76400006 2104876
0.18918097 -0.2211962 0.76400006 854016
-0.16378286 -0.24085715 0.84300005 4670551
-0.16019048 -0.24028571 0.84100002 4340028
-0.15661335 -0.23971429 0.83900005 3486527
-0.15305144 -0.23914286 0.83700001 3815240
-0.14986286 -0.23914286 0.83700001 3882066
-0.14667428 -0.23914286 0.83700001 4078412
-0.14280002 -0.23800002 0.83300006 4078162
-0.13962668 -0.23800002 0.83300006 4078412
-0.13612571 -0.23742858 0.83100003 3946826
-0.13232 -0.23628572 0.82700002 3750730
-0.12916952 -0.23628572 0.82700002 3946056
-0.12601906 -0.23628572 0.82700002 3880515
-0.12257144 -0.2357143 0.82500005 3552847
-0.11913905 -0.23514286 0.82300001 3552320
-0.1157219 -0.23457144 0.82100004 3552570
-0.11259429 -0.23457144 0.82100004 3486527
-0.10920001 -0.23400001 0.81900007 3290179
-0.10582096 -0.23342857 0.81700003 3289148
-0.10270857 -0.23342857 0.81700003 2961716
-0.099596195 -0.23342857 0.81700003 3223103
-0.096483812 -0.23342857 0.81700003 3027259
-0.09314286 -0.23285715 0.81500006 2961466
-0.090038106 -0.23285715 0.81500006 2764589
-0.086719997 -0.23228572 0.81300002 2764087
-0.083417147 -0.23171429 0.81100005 2894138
-0.080129527 -0.23114286 0.80900002 2828597
-0.07685715 -0.23057143 0.80700004 2828597
-0.073782854 -0.23057143 0.80700004 2828597
-0.070533335 -0.23000002 0.80500007 2762804
-0.067466669 -0.23000002 0.80500007 2566708
-0.064400002 -0.23000002 0.80500007 2632501
-0.06133334 -0.23000002 0.80500007 2697011
-0.05826667 -0.23000002 0.80500007 2762804
-0.055062857 -0.22942857 0.80300003 2762804
-0.052003812 -0.22942857 0.80300003 2500665
-0.048883811 -0.22914286 0.80200005 2369843
-0.045828573 -0.22914286 0.80200005 2697011
-0.042773336 -0.22914286 0.80200005 2697261
-0.039619051 -0.22857143 0.80000001 2697011
-0.036480002 -0.228 0.79800004 2761773
-0.033440001 -0.228 0.79800004 2565425
-0.030323811 -0.22742859 0.79600006 2565175
-0.02729143 -0.22742859 0.79600006 2499884
-0.024259049 -0.22742859 0.79600006 2565175
-0.021226669 -0.22742859 0.79600006 2499632
-0.018148571 -0.22685716 0.79400003 2238257
-0.015123811 -0.22685716 0.79400003 2433839
-0.012129525 -0.22742859 0.79600006 2172464
-0.009097144 -0.22742859 0.79600006 2499884
-0.0060495241 -0.22685716 0.79400003 2499884
-0.003024762 -0.22685716 0.79400003 2236712
0 -0.22685716 0.79400003 2302255
0.0030171431 -0.22628573 0.79200006 2040628
0.0060190479 -0.22571428 0.79000002 2565425
0.0090285717 -0.22571428 0.79000002 2304050
0.012038096 -0.22571428 0.79000002 2106421
0.015047619 -0.22571428 0.79000002 2040878
0.018057143 -0.22571428 0.79000002 2499632
0.021066668 -0.22571428 0.79000002 2499632
0.024076192 -0.22571428 0.79000002 2106923
0.02705143 -0.22542858 0.78900003 2040628
0.029980956 -0.22485717 0.78700006 2367796
0.032895237 -0.22428572 0.78500003 2499382
0.035794288 -0.22371429 0.78300005 2499632
0.038777146 -0.22371429 0.78300005 2367796
0.041866668 -0.22428572 0.78500003 2433839
0.044857144 -0.22428572 0.78500003 2499382
0.047847621 -0.22428572 0.78500003 2172464
0.050838094 -0.22428572 0.78500003 2172464
0.053691432 -0.22371429 0.78300005 2172464
0.056674287 -0.22371429 0.78300005 2302784
0.059504766 -0.22314286 0.78100002 2172464
0.062480003 -0.22314286 0.78100002 2303800
0.065371424 -0.22285716 0.78000003 2433839
0.067992382 -0.22171429 0.77600002 2630968
0.070948571 -0.22171429 0.77600002 2565675
0.074095242 -0.22228573 0.77800006 2565175
0.077059053 -0.22228573 0.77800006 2499382
0.080022864 -0.22228573 0.77800006 2106421
0.082986675 -0.22228573 0.77800006 2565425
0.085729532 -0.22171429 0.77600002 2827314
0.088685714 -0.22171429 0.77600002 2827064
0.091641903 -0.22171429 0.77600002 2631218
0.0945981 -0.22171429 0.77600002 2238257
0.097554289 -0.22171429 0.77600002 2303800
0.10025144 -0.22114287 0.77400005 2172464
0.1032 -0.22114287 0.77400005 2304050
0.10614858 -0.22114287 0.77400005 2499382
0.10909715 -0.22114287 0.77400005 2565175
0.11204572 -0.22114287 0.77400005 2630968
0.11499429 -0.22114287 0.77400005 2697011
0.11794287 -0.22114287 0.77400005 2697011
0.12073525 -0.22085716 0.77300006 2697513
0.12368001 -0.22085716 0.77300006 2500665
0.12629715 -0.22028571 0.77100003 2303800
0.12923428 -0.22028571 0.77100003 2500665
0.13217142 -0.22028571 0.77100003 2566708
0.13510858 -0.22028571 0.77100003 2762804
0.13804571 -0.22028571 0.77100003 2566708
0.14098287 -0.22028571 0.77100003 2566958
0.14354669 -0.2197143 0.76900005 2631747
0.14647621 -0.2197143 0.76900005 2828597
0.14940572 -0.2197143 0.76900005 2762804
0.15233524 -0.2197143 0.76900005 2697011
0.15566859 -0.22028571 0.77100003 2697011
0.15860572 -0.22028571 0.77100003 2566958
0.16154286 -0.22028571 0.77100003 2763054
0.16448 -0.22028571 0.77100003 2762804
0.16741715 -0.22028571 0.77100003 2762804
0.17035429 -0.22028571 0.77100003 2697011
0.17329143 -0.22028571 0.77100003 2697011
0.17622858 -0.22028571 0.77100003 2697011
0.17870097 -0.2197143 0.76900005 2369843
0.18163048 -0.2197143 0.76900005 2304050
0.18456 -0.2197143 0.76900005 2499884
0.1867581 -0.21885714 0.76600003 2630968
0.1896762 -0.21885714 0.76600003 787712
-0.16857904 -0.23990095 0.85100001 15064831
-0.16378286 -0.23764573 0.84300005 2959663
-0.16019048 -0.2370819 0.84100002 3552847
-0.15698667 -0.2370819 0.84100002 3091517
-0.15341716 -0.2365181 0.83900005 3947078
-0.15022096 -0.2365181 0.83900005 4012619
-0.14632381 -0.23539048 0.83500004 4078412
-0.14280002 -0.23482668 0.83300006 4078164
-0.13962668 -0.23482668 0.83300006 4078412
-0.13612571 -0.23426287 0.83100003 3750230
-0.13232 -0.23313524 0.82700002 3683654
-0.12916952 -0.23313524 0.82700002 3749447
-0.12601906 -0.23313524 0.82700002 3683654
-0.12257144 -0.23257144 0.82500005 3552068
-0.11942858 -0.23257144 0.82500005 3552320
-0.1157219 -0.23144381 0.82100004 3551800
-0.11259429 -0.23144381 0.82100004 3354941
-0.10920001 -0.23088002 0.81900007 3158593
-0.10608001 -0.23088002 0.81900007 3354941
-0.10270857 -0.23031621 0.81700003 3223355
-0.099596195 -0.23031621 0.81700003 3223103
-0.096483812 -0.23031621 0.81700003 3025976
-0.093371429 -0.23031621 0.81700003 2895673
-0.090038106 -0.22975239 0.81500006 2960183
-0.086719997 -0.22918858 0.81300002 2894640
-0.083417147 -0.22862478 0.81100005 2828345
-0.080129527 -0.22806096 0.80900002 2303800
-0.07685715 -0.22749715 0.80700004 2697011
-0.073782854 -0.22749715 0.80700004 2697011
-0.070708573 -0.22749715 0.80700004 2697261
-0.067634292 -0.22749715 0.80700004 2697011
-0.064560004 -0.22749715 0.80700004 2304050
-0.061485719 -0.22749715 0.80700004 2369843
-0.05826667 -0.22693335 0.80500007 2762804
-0.055200007 -0.22693335 0.80500007 2762804
-0.052003812 -0.22636953 0.80300003 2697011
-0.048883811 -0.22608763 0.80200005 2697011
-0.045828573 -0.22608763 0.80200005 2697011
-0.042773336 -0.22608763 0.80200005 2697011
-0.039619051 -0.22552381 0.80000001 2565425
-0.036571428 -0.22552381 0.80000001 2565675
-0.033523809 -0.22552381 0.80000001 2499632
-0.030400002 -0.22496 0.79800004 2304050
-0.02736 -0.22496 0.79800004 2238257
-0.024259049 -0.2243962 0.79600006 2696761
-0.021226669 -0.2243962 0.79600006 2565425
-0.018148571 -0.22383238 0.79400003 2303800
-0.015123811 -0.22383238 0.79400003 2304050
-0.012129525 -0.2243962 0.79600006 2565425
-0.009097144 -0.2243962 0.79600006 2631468
-0.0060495241 -0.22383238 0.79400003 2499884
-0.003024762 -0.22383238 0.79400003 2499632
0 -0.22383238 0.79400003 2172464
0.0030171431 -0.22326858 0.79200006 2172464
0.0060190479 -0.22270477 0.79000002 2565425
0.0090285717 -0.22270477 0.79000002 2499632
0.012038096 -0.22270477 0.79000002 2433589
0.015047619 -0.22270477 0.79000002 2433839
0.018057143 -0.22270477 0.79000002 2433839
0.021066668 -0.22270477 0.79000002 2433589
0.024076192 -0.22270477 0.79000002 2630187
0.02705143 -0.22242287 0.78900003 2433589
0.030057143 -0.22242287 0.78900003 2433839
0.032979049 -0.22185905 0.78700006 2433589
0.035885714 -0.22129524 0.78500003 2499632
0.038876191 -0.22129524 0.78500003 2565425
0.041866668 -0.22129524 0.78500003 2499884
0.044857144 -0.22129524 0.78500003 2172214
0.047847621 -0.22129524 0.78500003 2172464
0.050838094 -0.22129524 0.78500003 2499632
0.053691432 -0.22073145 0.78300005 2499632
0.056674287 -0.22073145 0.78300005 2565175
0.059504766 -0.22016762 0.78100002 2565425
0.062480003 -0.22016762 0.78100002 2631218
0.065455243 -0.22016762 0.78100002 2499632
0.068342857 -0.21988572 0.78000003 2172214
0.071131431 -0.21932191 0.77800006 2368048
0.074095242 -0.21932191 0.77800006 2564160
0.077059053 -0.21932191 0.77800006 2565425
0.080022864 -0.21932191 0.77800006 2761521
0.082986675 -0.21932191 0.77800006 2499382
0.085729532 -0.21875811 0.77600002 2499632
0.088685714 -0.21875811 0.77600002 2564160
0.091641903 -0.21875811 0.77600002 2368048
0.0945981 -0.21875811 0.77600002 2499632
0.097554289 -0.21875811 0.77600002 2303800
0.10025144 -0.21819431 0.77400005 2238257
0.1032 -0.21819431 0.77400005 2303800
0.10614858 -0.21819431 0.77400005 2565175
0.10909715 -0.21819431 0.77400005 2629953
0.11204572 -0.21819431 0.77400005 2631218
0.11499429 -0.21819431 0.77400005 2697011
0.11794287 -0.21819431 0.77400005 2369843
0.12089143 -0.21819431 0.77400005 2566456
0.12384001 -0.21819431 0.77400005 2303800
0.12678857 -0.21819431 0.77400005 2172464
0.12956953 -0.21791239 0.77300006 2499382
0.13217142 -0.21734858 0.77100003 2697011
0.13510858 -0.21734858 0.77100003 2697011
0.13804571 -0.21734858 0.77100003 2697011
0.14098287 -0.21734858 0.77100003 2697261
0.14354669 -0.21678478 0.76900005 2762804
0.14647621 -0.21678478 0.76900005 2697011
0.14940572 -0.21678478 0.76900005 2696761
0.15233524 -0.21678478 0.76900005 2631218
0.15566859 -0.21734858 0.77100003 2696761
0.15860572 -0.21734858 0.77100003 2763054
0.16154286 -0.21734858 0.77100003 2827827
0.16448 -0.21734858 0.77100003 2762804
0.16741715 -0.21734858 0.77100003 2566708
0.17035429 -0.21734858 0.77100003 2304050
0.17329143 -0.21734858 0.77100003 2697011
0.17622858 -0.21734858 0.77100003 2697261
0.17870097 -0.21678478 0.76900005 2827314
0.18163048 -0.21678478 0.76900005 2565175
0.18456 -0.21678478 0.76900005 2433839
0.18700191 -0.21622096 0.76700002 2827314
0.18992381 -0.21622096 0.76700002 921897
-0.16818286 -0.23610286 0.84900004 14604540
-0.16378286 -0.23443431 0.84300005 524545
-0.16019048 -0.23387811 0.84100002 3487056
-0.15698667 -0.23387811 0.84100002 3553351
-0.15341716 -0.23332191 0.83900005 3815240
-0.14986286 -0.23276572 0.83700001 3814992
-0.14632381 -0.23220953 0.83500004 3946826
-0.14280002 -0.23165335 0.83300006 4142931
-0.13962668 -0.23165335 0.83300006 4077642
-0.13612571 -0.23109715 0.83100003 4012371
-0.13232 -0.22998478 0.82700002 3683654
-0.12916952 -0.22998478 0.82700002 3683152
-0.12601906 -0.22998478 0.82700002 3617861
-0.12257144 -0.22942857 0.82500005 3420734
-0.11913905 -0.22887239 0.82300001 3224638
-0.11600381 -0.22887239 0.82300001 3158845
-0.11259429 -0.2283162 0.82100004 3354941
-0.10946666 -0.2283162 0.82100004 3288394
-0.10608001 -0.22776002 0.81900007 3027259
-0.10296001 -0.22776002 0.81900007 2961466
-0.099596195 -0.22720382 0.81700003 3027007
-0.096483812 -0.22720382 0.81700003 2895421
-0.093371429 -0.22720382 0.81700003 2764087
-0.090259053 -0.22720382 0.81700003 2894390
-0.086933337 -0.22664763 0.81500006 2828597
-0.083417147 -0.22553524 0.81100005 2828345
-0.080327623 -0.22553524 0.81100005 2566708
-0.077047616 -0.22497904 0.80900002 2500665
-0.073782854 -0.22442287 0.80700004 2238257
-0.070708573 -0.22442287 0.80700004 2238509
-0.067634292 -0.22442287 0.80700004 2631218
-0.064560004 -0.22442287 0.80700004 2631218
-0.061485719 -0.22442287 0.80700004 2565675
-0.05826667 -0.22386667 0.80500007 2697011
-0.055200007 -0.22386667 0.80500007 2828077
-0.052133337 -0.22386667 0.80500007 2697261
-0.048944764 -0.22331049 0.80300003 2304050
-0.045828573 -0.2230324 0.80200005 2304050
-0.042773336 -0.2230324 0.80200005 2565175
-0.039718099 -0.2230324 0.80200005 2631218
-0.036662858 -0.2230324 0.80200005 2565175
-0.033523809 -0.2224762 0.80000001 2631218
-0.030400002 -0.22192 0.79800004 2565175
-0.02736 -0.22192 0.79800004 2631218
-0.024259049 -0.22136383 0.79600006 2565425
-0.021226669 -0.22136383 0.79600006 2238257
-0.018148571 -0.22080763 0.79400003 2304050
-0.015123811 -0.22080763 0.79400003 2238257
-0.012129525 -0.22136383 0.79600006 2172464
-0.009097144 -0.22136383 0.79600006 2565425
-0.0060647624 -0.22136383 0.79600006 2172716
-0.003024762 -0.22080763 0.79400003 2172464
0 -0.22080763 0.79400003 2106671
0.0030171431 -0.22025144 0.79200006 2172464
0.0060342862 -0.22025144 0.79200006 2499632
