# .PCD v0.7 - Point Cloud Data file format
VERSION 0.7
FIELDS x y z rgba
SIZE 4 4 4 4
TYPE F F F U
COUNT 1 1 1 1
WIDTH 1091
HEIGHT 1
VIEWPOINT 0 0 0 1 0 0 0
POINTS 1091
DATA ascii
-0.06897524 -0.084651433 0.82300001 4738129
-0.065840006 -0.084651433 0.82300001 4671321
-0.062552378 -0.084445722 0.82100004 4672336
-0.059280004 -0.084240004 0.81900007 4541525
-0.056022856 -0.084034286 0.81700003 4673109
-0.052910481 -0.084034286 0.81700003 5000790
-0.049920004 -0.084240004 0.81900007 5198167
-0.046800002 -0.084240004 0.81900007 5329755
-0.043680001 -0.084240004 0.81900007 5329755
-0.040560003 -0.084240004 0.81900007 5263962
-0.037440002 -0.084240004 0.81900007 5132374
-0.034320004 -0.084240004 0.81900007 5132376
-0.03112381 -0.084034286 0.81700003 5000790
-0.028011428 -0.084034286 0.81700003 4869204
-0.024899049 -0.084034286 0.81700003 4803157
-0.021786667 -0.084034286 0.81700003 4474451
-0.018720001 -0.084240004 0.81900007 4473420
-0.015600001 -0.084240004 0.81900007 4210250
-0.012480001 -0.084240004 0.81900007 4341066
-0.009382857 -0.084445722 0.82100004 4275523
-0.0062400005 -0.084240004 0.81900007 4143937
-0.0031200002 -0.084240004 0.81900007 3947078
0 -0.084445722 0.82100004 3947328
0.0031276192 -0.084445722 0.82100004 4012371
0.0062704762 -0.084651433 0.82300001 4210250
0.0094057145 -0.084651433 0.82300001 4341836
0.012571429 -0.084857151 0.82500005 4472398
0.015714286 -0.084857151 0.82500005 4406607
0.018902857 -0.085062861 0.82700002 4341838
0.022053333 -0.085062861 0.82700002 4341838
0.025264764 -0.085268572 0.82900006 4341838
0.028422859 -0.085268572 0.82900006 4473420
0.031657144 -0.085474283 0.83100003 4407631
0.034822859 -0.085474283 0.83100003 4145488
0.038079999 -0.08568 0.83300006 3686729
0.041451432 -0.086091429 0.83700001 3948611
0.044960003 -0.086708575 0.84300005 2106421
0.048285715 -0.086914286 0.84500003 2238257
0.051626671 -0.087120004 0.84700006 2565675
0.05498286 -0.087325715 0.84900004 2695980
0.058217146 -0.087325715 0.84900004 2565675
0.061596192 -0.087531433 0.85100001 2631218
0.064838096 -0.087531433 0.85100001 2172716
0.068080001 -0.087531433 0.85100001 2499884
0.071573332 -0.087839998 0.85400003 2630187
0.074826665 -0.087839998 0.85400003 2368048
0.078262866 -0.088045716 0.85600007 2368298
0.081714287 -0.088251427 0.85800004 2302255
0.085180953 -0.088457145 0.86000001 2302255
0.088457145 -0.088457145 0.86000001 2236712
0.091946669 -0.088662863 0.86200005 2368298
0.095451429 -0.088868573 0.86400002 2236462
0.099085718 -0.089177147 0.86700004 2301222
0.10262477 -0.089382865 0.86900002 2236462
0.10617905 -0.089588575 0.87100005 2236712
0.10974857 -0.089794286 0.87300003 1909544
0.11333334 -0.090000004 0.87500006 2368298
0.11706667 -0.090308577 0.87800002 2368298
0.12068572 -0.090514295 0.88000005 2500134
0.12432001 -0.090720005 0.88200003 2236712
0.12811428 -0.091028571 0.88500005 2499884
0.13178286 -0.091234289 0.88700002 2696230
0.13577142 -0.091645718 0.89100003 2827566
0.1396343 -0.091954283 0.89400005 2631468
0.14336 -0.092160001 0.89600003 2697513
0.14677334 -0.092160001 0.89600003 2697513
0.15018666 -0.092160001 0.89600003 2631468
0.15565714 -0.093394287 0.90800005 2697513
-0.21384001 -0.088251427 0.89100003 11512503
-0.21044572 -0.088251427 0.89100003 5258273
-0.20705143 -0.088251427 0.89100003 1843501
-0.20320001 -0.088053338 0.88900006 2369843
-0.19936381 -0.087855235 0.88700002 2696761
-0.19488001 -0.087360002 0.88200003 2761773
-0.19065143 -0.08696381 0.87800002 2565675
-0.18666668 -0.086666673 0.87500006 2565927
-0.1829143 -0.08646857 0.87300003 2697261
-0.17917715 -0.086270481 0.87100005 2828077
-0.17545523 -0.086072378 0.86900002 2829099
-0.17174858 -0.085874289 0.86700004 2698294
-0.16786286 -0.085577145 0.86400002 2698042
-0.16380952 -0.085180953 0.86000001 2698544
-0.16053332 -0.085180953 0.86000001 3026226
-0.15725714 -0.085180953 0.86000001 2960685
-0.15398096 -0.085180953 0.86000001 3091769
-0.1503543 -0.084982857 0.85800004 2828847
-0.14674287 -0.084784769 0.85600007 2828847
-0.14264381 -0.084289521 0.85100001 2894892
-0.13940191 -0.084289521 0.85100001 2894892
-0.13584 -0.084091432 0.84900004 2960183
-0.13260572 -0.084091432 0.84900004 3026226
-0.12937143 -0.084091432 0.84900004 2960685
-0.12584001 -0.083893336 0.84700006 2960433
-0.12203429 -0.083497144 0.84300005 2764589
-0.11882287 -0.083497144 0.84300005 2764337
-0.11533715 -0.083299048 0.84100002 3091015
-0.11213334 -0.083299048 0.84100002 2697261
-0.10892952 -0.083299048 0.84100002 2894138
-0.10547429 -0.083100952 0.83900005 3025206
-0.10203429 -0.082902864 0.83700001 3025456
-0.098609529 -0.082704768 0.83500004 2893636
-0.095200002 -0.082506672 0.83300006 3552320
-0.092026673 -0.082506672 0.83300006 5131870
-0.088853337 -0.082506672 0.83300006 4606543
-0.08568 -0.082506672 0.83300006 4344655
-0.081912383 -0.081912383 0.82700002 4474705
-0.078761905 -0.081912383 0.82700002 4540498
-0.075428575 -0.081714287 0.82500005 4344146
-0.072285712 -0.081714287 0.82500005 4409414
-0.069142863 -0.081714287 0.82500005 4605006
-0.065840006 -0.081516191 0.82300001 4605010
-0.062552378 -0.081318095 0.82100004 4342865
-0.059280004 -0.081120007 0.81900007 4670297
-0.056022856 -0.080921903 0.81700003 4671321
-0.052910481 -0.080921903 0.81700003 4606291
-0.049798097 -0.080921903 0.81700003 4934477
-0.046685714 -0.080921903 0.81700003 5131093
-0.043680001 -0.081120007 0.81900007 5131870
-0.040460952 -0.080921903 0.81700003 4934491
-0.037348576 -0.080921903 0.81700003 4934995
-0.034236193 -0.080921903 0.81700003 4934997
-0.03112381 -0.080921903 0.81700003 4803157
-0.028011428 -0.080921903 0.81700003 4670801
-0.024838097 -0.080723815 0.81500006 4604504
-0.021733334 -0.080723815 0.81500006 4407631
-0.018720001 -0.081120007 0.81900007 4014404
-0.015600001 -0.081120007 0.81900007 3882316
-0.012480001 -0.081120007 0.81900007 3882316
-0.0093600005 -0.081120007 0.81900007 4012871
-0.0062400005 -0.081120007 0.81900007 3881535
-0.0031200002 -0.081120007 0.81900007 3947078
0 -0.081120007 0.81900007 4143687
0.0031276192 -0.081318095 0.82100004 4275021
0.0062552383 -0.081318095 0.82100004 3816523
0.0094057145 -0.081516191 0.82300001 3948109
0.012540952 -0.081516191 0.82300001 4276043
0.015676191 -0.081516191 0.82300001 4275791
0.018857144 -0.081714287 0.82500005 4209748
0.022053333 -0.081912383 0.82700002 4013902
0.025203809 -0.081912383 0.82700002 4209748
0.028422859 -0.082110479 0.82900006 4341836
0.031657144 -0.082308576 0.83100003 4079695
0.034822859 -0.082308576 0.83100003 3948109
0.038079999 -0.082506672 0.83300006 3882568
0.041451432 -0.082902864 0.83700001 3947328
0.044853333 -0.083299048 0.84100002 3749699
0.048285715 -0.08369524 0.84500003 2367796
0.051626671 -0.083893336 0.84700006 2499884
0.05498286 -0.084091432 0.84900004 2172716
0.058354285 -0.084289521 0.85100001 2433839
0.061596192 -0.084289521 0.85100001 2499632
0.064838096 -0.084289521 0.85100001 1909544
0.068080001 -0.084289521 0.85100001 1909544
0.071573332 -0.084586665 0.85400003 2236712
0.074826665 -0.084586665 0.85400003 2433839
0.078262866 -0.084784769 0.85600007 2432558
0.081714287 -0.084982857 0.85800004 2300972
0.085180953 -0.085180953 0.86000001 2497331
0.088457145 -0.085180953 0.86000001 2039333
0.091946669 -0.085379049 0.86200005 2105126
0.095451429 -0.085577145 0.86400002 2170669
0.099085718 -0.085874289 0.86700004 2236712
0.10262477 -0.086072378 0.86900002 1909294
0.10593524 -0.086072378 0.86900002 2170919
0.10949715 -0.086270481 0.87100005 2171169
0.11333334 -0.086666673 0.87500006 2105126
0.11733334 -0.087161906 0.88000005 2368298
0.12068572 -0.087161906 0.88000005 2368298
0.12432001 -0.087360002 0.88200003 2368298
0.12811428 -0.087657154 0.88500005 2499884
0.13178286 -0.087855235 0.88700002 2434091
0.13622858 -0.088548578 0.89400005 2565675
0.1396343 -0.088548578 0.89400005 2761773
0.14336 -0.088746674 0.89600003 2697261
0.14710096 -0.088944763 0.89800006 2304556
0.1505219 -0.088944763 0.89800006 2632501
0.15565714 -0.089935243 0.90800005 398365
-0.21456 -0.085142866 0.89400005 9474460
-0.21115428 -0.085142866 0.89400005 726274
-0.20705143 -0.084857151 0.89100003 2827827
-0.20320001 -0.084666677 0.88900006 2697011
-0.1989143 -0.084285721 0.88500005 2303800
-0.19443811 -0.083809532 0.88000005 2697261
-0.19065143 -0.083619051 0.87800002 2697261
-0.18666668 -0.083333343 0.87500006 2565927
-0.18333335 -0.083333343 0.87500006 2631468
-0.17917715 -0.082952388 0.87100005 2565425
-0.17545523 -0.082761906 0.86900002 2762804
-0.17174858 -0.082571432 0.86700004 2632501
-0.16786286 -0.082285717 0.86400002 2763054
-0.16419049 -0.082095243 0.86200005 2828597
-0.16053332 -0.081904761 0.86000001 2894390
-0.15725714 -0.081904761 0.86000001 2698042
-0.15362285 -0.081714287 0.85800004 2698294
-0.1503543 -0.081714287 0.85800004 2828847
-0.14674287 -0.081523813 0.85600007 2828847
-0.14264381 -0.081047617 0.85100001 2894892
-0.13940191 -0.081047617 0.85100001 2894892
-0.13584 -0.080857143 0.84900004 2894640
-0.13260572 -0.080857143 0.84900004 2960183
-0.12937143 -0.080857143 0.84900004 2894390
-0.12584001 -0.080666669 0.84700006 2764087
-0.12232381 -0.080476187 0.84500003 2764337
-0.11882287 -0.080285713 0.84300005 2960685
-0.11533715 -0.080095239 0.84100002 2959931
-0.11213334 -0.080095239 0.84100002 2959663
-0.10892952 -0.080095239 0.84100002 2959931
-0.10547429 -0.079904765 0.83900005 2894390
-0.10203429 -0.079714291 0.83700001 3156540
-0.098609529 -0.079523809 0.83500004 3025222
-0.095200002 -0.079333335 0.83300006 4409162
-0.092026673 -0.079333335 0.83300006 4539213
-0.088853337 -0.079333335 0.83300006 4539213
-0.08568 -0.079333335 0.83300006 4473420
-0.081912383 -0.078761905 0.82700002 4735822
-0.078571431 -0.078571431 0.82500005 4735822
-0.075245716 -0.078380957 0.82300001 4342865
-0.072110482 -0.078380957 0.82300001 4539213
-0.06897524 -0.078380957 0.82300001 4342865
-0.065680005 -0.078190483 0.82100004 4342358
-0.062400002 -0.078000009 0.81900007 4407631
-0.059280004 -0.078000009 0.81900007 4735570
-0.056022856 -0.077809528 0.81700003 4735822
-0.052910481 -0.077809528 0.81700003 4539213
-0.049798097 -0.077809528 0.81700003 4802639
-0.046685714 -0.077809528 0.81700003 4802387
-0.043573335 -0.077809528 0.81700003 4868180
-0.040460952 -0.077809528 0.81700003 4670297
-0.037348576 -0.077809528 0.81700003 4736344
-0.034152381 -0.077619053 0.81500006 4539737
-0.031047622 -0.077619053 0.81500006 4736594
-0.027942859 -0.077619053 0.81500006 4670297
-0.024838097 -0.077619053 0.81500006 4407899
-0.021733334 -0.077619053 0.81500006 4275791
-0.018674288 -0.077809528 0.81700003 3947078
-0.015600001 -0.078000009 0.81900007 4012871
-0.012480001 -0.078000009 0.81900007 4144205
-0.0093600005 -0.078000009 0.81900007 3881285
-0.0062400005 -0.078000009 0.81900007 3947328
-0.0031200002 -0.078000009 0.81900007 3619144
0 -0.078000009 0.81900007 3815492
0.0031200002 -0.078000009 0.81900007 3946826
0.0062552383 -0.078190483 0.82100004 4077642
0.009382857 -0.078190483 0.82100004 4274260
0.012540952 -0.078380957 0.82300001 4078664
0.015676191 -0.078380957 0.82300001 4078412
0.018857144 -0.078571431 0.82500005 4144205
0.022053333 -0.078761905 0.82700002 4078412
0.025203809 -0.078761905 0.82700002 3947859
0.028422859 -0.078952387 0.82900006 3946826
0.031657144 -0.079142861 0.83100003 4078412
0.034822859 -0.079142861 0.83100003 3882568
0.038079999 -0.079333335 0.83300006 3816775
0.041352384 -0.079523809 0.83500004 3816523
0.044746667 -0.079904765 0.83900005 3621186
0.048171431 -0.080285713 0.84300005 2896977
0.051626671 -0.080666669 0.84700006 1843251
0.05498286 -0.080857143 0.84900004 2172716
0.058354285 -0.081047617 0.85100001 2499632
0.061596192 -0.081047617 0.85100001 2695980
0.064838096 -0.081047617 0.85100001 2565675
0.068080001 -0.081047617 0.85100001 2630187
0.071573332 -0.081333332 0.85400003 2368048
0.074826665 -0.081333332 0.85400003 2499632
0.078262866 -0.081523813 0.85600007 2630187
0.081714287 -0.081714287 0.85800004 2564394
0.085180953 -0.081904761 0.86000001 2236462
0.088457145 -0.081904761 0.86000001 2039333
0.091946669 -0.082095243 0.86200005 2105126
0.095451429 -0.082285717 0.86400002 2039333
0.099085718 -0.082571432 0.86700004 1843751
0.10262477 -0.082761906 0.86900002 2236462
0.10593524 -0.082761906 0.86900002 2367015
0.10949715 -0.082952388 0.87100005 2171169
0.11333334 -0.083333343 0.87500006 2236712
0.11733334 -0.083809532 0.88000005 1909544
0.12068572 -0.083809532 0.88000005 2368298
0.12432001 -0.084000006 0.88200003 2236712
0.12811428 -0.084285721 0.88500005 2434091
0.13178286 -0.084476195 0.88700002 2368298
0.13622858 -0.085142866 0.89400005 2565425
0.1396343 -0.085142866 0.89400005 2631468
0.14336 -0.08533334 0.89600003 2499884
0.14710096 -0.085523814 0.89800006 2565675
0.15136001 -0.086000003 0.90300006 2828597
0.15565714 -0.086476192 0.90800005 1708581
0.15911619 -0.086476192 0.90800005 4672105
-0.21504 -0.081920005 0.89600003 5594456
-0.21115428 -0.081737146 0.89400005 1776411
-0.20774859 -0.081737146 0.89400005 2827314
-0.20320001 -0.081280008 0.88900006 2565675
-0.1989143 -0.080914289 0.88500005 2761773
-0.19443811 -0.080457143 0.88000005 2631468
-0.19065143 -0.080274284 0.87800002 2172716
-0.18666668 -0.080000006 0.87500006 2304556
-0.18333335 -0.080000006 0.87500006 2697261
-0.17958857 -0.079817139 0.87300003 2959663
-0.17585905 -0.079634286 0.87100005 2763054
-0.17214476 -0.079451434 0.86900002 2501165
-0.16786286 -0.078994282 0.86400002 2763054
-0.16419049 -0.078811437 0.86200005 2959663
-0.16053332 -0.07862857 0.86000001 3090999
-0.15725714 -0.07862857 0.86000001 2894390
-0.15362285 -0.078445718 0.85800004 2698294
-0.15000382 -0.078262866 0.85600007 2828847
-0.1464 -0.078079998 0.85400003 2566958
-0.14264381 -0.077805713 0.85100001 2959663
-0.13940191 -0.077805713 0.85100001 3156792
-0.13584 -0.077622861 0.84900004 2894640
-0.13229334 -0.077440001 0.84700006 2894640
-0.12906668 -0.077440001 0.84700006 2960183
-0.12554286 -0.077257141 0.84500003 2698294
-0.12232381 -0.077257141 0.84500003 2828847
-0.11882287 -0.077074297 0.84300005 2894892
-0.11561143 -0.077074297 0.84300005 2894390
-0.11213334 -0.07689143 0.84100002 2828847
-0.10892952 -0.07689143 0.84100002 2894640
-0.10547429 -0.076708578 0.83900005 3091249
-0.10203429 -0.076525718 0.83700001 3090747
-0.098609529 -0.076342858 0.83500004 4277576
-0.095200002 -0.076159999 0.83300006 4343621
-0.092026673 -0.076159999 0.83300006 4277576
-0.088640004 -0.075977147 0.83100003 4211533
-0.085474283 -0.075977147 0.83100003 4211783
-0.081912383 -0.075611427 0.82700002 4473672
-0.078380957 -0.075245716 0.82300001 4407879
-0.075062856 -0.075062856 0.82100004 4210518
-0.071935244 -0.075062856 0.82100004 4211783
-0.068807617 -0.075062856 0.82100004 4211533
-0.065520003 -0.074880004 0.81900007 4275791
-0.062400002 -0.074880004 0.81900007 4210250
-0.05913524 -0.074697152 0.81700003 4276043
-0.056022856 -0.074697152 0.81700003 4407629
-0.052910481 -0.074697152 0.81700003 4145740
-0.049798097 -0.074697152 0.81700003 4277326
-0.046685714 -0.074697152 0.81700003 4343117
-0.043573335 -0.074697152 0.81700003 4605006
-0.040460952 -0.074697152 0.81700003 4407631
-0.037257146 -0.074514292 0.81500006 4407631
-0.034152381 -0.074514292 0.81500006 4407631
-0.031047622 -0.074514292 0.81500006 4473424
-0.027942859 -0.074514292 0.81500006 4539217
-0.024838097 -0.074514292 0.81500006 4603225
-0.021733334 -0.074514292 0.81500006 4209998
-0.018674288 -0.074697152 0.81700003 3882568
-0.015600001 -0.074880004 0.81900007 3816775
-0.012480001 -0.074880004 0.81900007 3619144
-0.0093600005 -0.074880004 0.81900007 3749699
-0.0062400005 -0.074880004 0.81900007 3946558
-0.0031200002 -0.074880004 0.81900007 3946056
0 -0.074880004 0.81900007 3815492
0.0031200002 -0.074880004 0.81900007 3749699
0.0062400005 -0.074880004 0.81900007 3881033
0.009382857 -0.075062856 0.82100004 4012619
0.012510477 -0.075062856 0.82100004 3946826
0.015676191 -0.075245716 0.82300001 4012619
0.018811429 -0.075245716 0.82300001 4078664
0.022000002 -0.075428575 0.82500005 3750730
0.025203809 -0.075611427 0.82700002 3750730
0.028422859 -0.075794294 0.82900006 3619396
0.031733338 -0.076159999 0.83300006 3750982
0.03490667 -0.076159999 0.83300006 3619396
0.038079999 -0.076159999 0.83300006 3619144
0.041352384 -0.076342858 0.83500004 3552847
0.044746667 -0.076708578 0.83900005 3552320
0.048171431 -0.077074297 0.84300005 3816523
0.051504765 -0.077257141 0.84500003 2763333
0.054853339 -0.077440001 0.84700006 2499632
0.058217146 -0.077622861 0.84900004 2565425
0.061451431 -0.077622861 0.84900004 2499884
0.064838096 -0.077805713 0.85100001 2499632
0.068080001 -0.077805713 0.85100001 2432808
0.071573332 -0.078079998 0.85400003 2564142
0.07500191 -0.078262866 0.85600007 2368048
0.078262866 -0.078262866 0.85600007 2302255
0.081714287 -0.078445718 0.85800004 2366765
0.084982857 -0.078445718 0.85800004 2367015
0.088457145 -0.07862857 0.86000001 2235431
0.091946669 -0.078811437 0.86200005 2105126
0.095451429 -0.078994282 0.86400002 2105126
0.099085718 -0.079268575 0.86700004 2105126
0.10238858 -0.079268575 0.86700004 2039083
0.10593524 -0.079451434 0.86900002 2039083
0.10949715 -0.079634286 0.87100005 2039083
0.11333334 -0.080000006 0.87500006 2367015
0.11733334 -0.080457143 0.88000005 2498351
0.12096 -0.080640003 0.88200003 2368298
0.12474287 -0.080914289 0.88500005 2368298
0.12840381 -0.081097141 0.88700002 2368298
0.13178286 -0.081097141 0.88700002 2302755
0.13622858 -0.081737146 0.89400005 2499632
0.1396343 -0.081737146 0.89400005 2565675
0.14336 -0.081920005 0.89600003 2697011
0.14710096 -0.082102865 0.89800006 2697261
0.15186286 -0.082834281 0.90600002 2828077
0.15565714 -0.083017148 0.90800005 2563892
0.15911619 -0.083017148 0.90800005 1647912
-0.22016001 -0.079120003 0.90300006 2694433
-0.21504 -0.078506663 0.89600003 3749931
-0.21115428 -0.078331426 0.89400005 2630437
-0.20774859 -0.078331426 0.89400005 2697261
-0.20320001 -0.077893332 0.88900006 2697261
-0.1989143 -0.077542864 0.88500005 2565675
-0.19443811 -0.07710477 0.88000005 2565675
-0.19065143 -0.076929525 0.87800002 2499884
-0.18730666 -0.076929525 0.87800002 2238257
-0.18333335 -0.076666676 0.87500006 2631720
-0.17958857 -0.07649143 0.87300003 2697513
-0.17585905 -0.076316193 0.87100005 2828847
-0.17214476 -0.076140948 0.86900002 2960183
-0.16844572 -0.075965717 0.86700004 2894640
-0.16419049 -0.075527616 0.86200005 2828847
-0.16090667 -0.075527616 0.86200005 2894640
-0.15725714 -0.075352386 0.86000001 2894390
-0.15362285 -0.075177148 0.85800004 2828847
-0.15000382 -0.07500191 0.85600007 2697513
-0.1464 -0.074826665 0.85400003 2829099
-0.14264381 -0.074563809 0.85100001 2959663
-0.13940191 -0.074563809 0.85100001 2894390
-0.13584 -0.074388571 0.84900004 2829099
-0.13229334 -0.074213333 0.84700006 2960433
-0.12906668 -0.074213333 0.84700006 2960183
-0.12554286 -0.074038103 0.84500003 2829880
-0.12232381 -0.074038103 0.84500003 2632751
-0.11882287 -0.073862866 0.84300005 2828847
-0.11561143 -0.073862866 0.84300005 2828597
-0.1124 -0.073862866 0.84300005 2960433
-0.10892952 -0.07368762 0.84100002 3026226
-0.10547429 -0.073512383 0.83900005 2762804
-0.10179048 -0.073161907 0.83500004 4078412
-0.098609529 -0.073161907 0.83500004 4276545
-0.095200002 -0.072986677 0.83300006 3948611
-0.091805719 -0.072811432 0.83100003 3686975
-0.088640004 -0.072811432 0.83100003 3882568
-0.085268572 -0.072636195 0.82900006 4012871
-0.081912383 -0.072460949 0.82700002 4276293
-0.078380957 -0.072110482 0.82300001 4276293
-0.075062856 -0.071935244 0.82100004 4341838
-0.071760006 -0.071760006 0.81900007 3752522
-0.068640009 -0.071760006 0.81900007 4014154
-0.065520003 -0.071760006 0.81900007 4144457
-0.062400002 -0.071760006 0.81900007 4078914
-0.05913524 -0.071584761 0.81700003 3947078
-0.056022856 -0.071584761 0.81700003 4078664
-0.052910481 -0.071584761 0.81700003 4144457
-0.049798097 -0.071584761 0.81700003 4012871
-0.046685714 -0.071584761 0.81700003 4144707
-0.043573335 -0.071584761 0.81700003 4144707
-0.040460952 -0.071584761 0.81700003 4144457
-0.037257146 -0.071409523 0.81500006 4144457
-0.034152381 -0.071409523 0.81500006 4210250
-0.031047622 -0.071409523 0.81500006 4406859
-0.027942859 -0.071409523 0.81500006 4406859
-0.024838097 -0.071409523 0.81500006 4143435
-0.021733334 -0.071409523 0.81500006 4077894
-0.018674288 -0.071584761 0.81700003 3946558
-0.015561905 -0.071584761 0.81700003 4144707
-0.012449524 -0.071584761 0.81700003 3684156
-0.009337144 -0.071584761 0.81700003 3815492
-0.0062247622 -0.071584761 0.81700003 3684156
-0.0031123811 -0.071584761 0.81700003 3749699
0 -0.071584761 0.81700003 3749699
0.0031200002 -0.071760006 0.81900007 3815492
0.0062400005 -0.071760006 0.81900007 3815492
0.009382857 -0.071935244 0.82100004 3815742
0.012510477 -0.071935244 0.82100004 3815492
0.015638094 -0.071935244 0.82100004 3749699
0.018811429 -0.072110482 0.82300001 3815492
0.021946667 -0.072110482 0.82300001 3815492
0.025142858 -0.072285712 0.82500005 3619396
0.028422859 -0.072636195 0.82900006 3619396
0.031657144 -0.072811432 0.83100003 3552320
0.03490667 -0.072986677 0.83300006 3618363
0.038079999 -0.072986677 0.83300006 3552320
0.041451432 -0.073337138 0.83700001 3552320
0.044853333 -0.07368762 0.84100002 3420734
0.048171431 -0.073862866 0.84300005 3813182
0.051504765 -0.074038103 0.84500003 4536403
0.054853339 -0.074213333 0.84700006 2433589
0.058217146 -0.074388571 0.84900004 2631218
0.061451431 -0.074388571 0.84900004 2761773
0.064838096 -0.074563809 0.85100001 2565675
0.068080001 -0.074563809 0.85100001 2236712
0.071573332 -0.074826665 0.85400003 2236462
0.07500191 -0.07500191 0.85600007 2040628
0.078262866 -0.07500191 0.85600007 2302255
0.081714287 -0.075177148 0.85800004 2629935
0.084982857 -0.075177148 0.85800004 2236712
0.088457145 -0.075352386 0.86000001 1844001
0.091946669 -0.075527616 0.86200005 2105126
0.095451429 -0.075702854 0.86400002 1907243
0.099085718 -0.075965717 0.86700004 2104876
0.10238858 -0.075965717 0.86700004 2236462
0.10617905 -0.076316193 0.87100005 2236462
0.10974857 -0.07649143 0.87300003 2236462
0.11372191 -0.076929525 0.87800002 2105126
0.11733334 -0.07710477 0.88000005 2302255
0.12137143 -0.077542864 0.88500005 2302255
0.12474287 -0.077542864 0.88500005 2368048
0.12840381 -0.077718101 0.88700002 2236462
0.13178286 -0.077718101 0.88700002 2434091
0.13622858 -0.078331426 0.89400005 2499884
0.13994667 -0.078506663 0.89600003 2434091
0.14368001 -0.078681909 0.89800006 2565425
0.14759238 -0.078944758 0.90100002 2499884
0.15186286 -0.079382859 0.90600002 2697261
0.15565714 -0.079558097 0.90800005 2697261
0.15911619 -0.079558097 0.90800005 659727
-0.22016001 -0.075680003 0.90300006 4407611
-0.21552002 -0.075260952 0.89800006 2629935
-0.21162668 -0.075093329 0.89600003 2434091
-0.20774859 -0.074925721 0.89400005 2631218
-0.20365715 -0.074674286 0.89100003 2827566
-0.1989143 -0.074171431 0.88500005 2828077
-0.19488001 -0.073920004 0.88200003 2499884
-0.19108573 -0.073752381 0.88000005 2499884
-0.18730666 -0.073584758 0.87800002 2304556
-0.18396191 -0.073584758 0.87800002 2501165
-0.18000001 -0.073333338 0.87500006 2763054
-0.17585905 -0.072998099 0.87100005 2828847
-0.17214476 -0.072830476 0.86900002 2632249
-0.16844572 -0.07266286 0.86700004 2632751
-0.16457143 -0.072411433 0.86400002 2894892
-0.16090667 -0.07224381 0.86200005 2894892
-0.15725714 -0.072076187 0.86000001 2894640
-0.15362285 -0.071908578 0.85800004 2764337
-0.1503543 -0.071908578 0.85800004 2698544
-0.1464 -0.071573332 0.85400003 2763054
-0.14264381 -0.071321905 0.85100001 2828847
-0.13940191 -0.071321905 0.85100001 2960183
-0.13584 -0.071154289 0.84900004 2960183
-0.13260572 -0.071154289 0.84900004 2830130
-0.12937143 -0.071154289 0.84900004 2764087
-0.12554286 -0.07081905 0.84500003 2830130
-0.12232381 -0.07081905 0.84500003 3026226
-0.11882287 -0.070651434 0.84300005 3025976
-0.11561143 -0.070651434 0.84300005 3091769
-0.1124 -0.070651434 0.84300005 3157562
-0.10892952 -0.070483811 0.84100002 2830130
-0.10547429 -0.070316188 0.83900005 2566456
-0.10179048 -0.069980957 0.83500004 3948361
-0.098609529 -0.069980957 0.83500004 3619898
-0.095200002 -0.069813341 0.83300006 3489600
-0.091805719 -0.069645718 0.83100003 3882568
-0.088640004 -0.069645718 0.83100003 3882316
-0.085268572 -0.069478095 0.82900006 3750982
-0.081912383 -0.069310479 0.82700002 4012619
-0.078380957 -0.06897524 0.82300001 3947328
-0.075062856 -0.068807617 0.82100004 3882316
-0.071760006 -0.068640009 0.81900007 3882568
-0.068640009 -0.068640009 0.81900007 3947328
-0.065520003 -0.068640009 0.81900007 3815742
-0.062400002 -0.068640009 0.81900007 3815742
-0.059280004 -0.068640009 0.81900007 3684937
-0.056022856 -0.068472385 0.81700003 3619396
-0.052910481 -0.068472385 0.81700003 3947328
-0.049798097 -0.068472385 0.81700003 3881285
-0.046685714 -0.068472385 0.81700003 3815742
-0.043573335 -0.068472385 0.81700003 3947328
-0.040460952 -0.068472385 0.81700003 3815492
-0.037257146 -0.068304762 0.81500006 3750982
-0.034152381 -0.068304762 0.81500006 3815492
-0.031047622 -0.068304762 0.81500006 3881285
-0.027942859 -0.068304762 0.81500006 3881285
-0.024777144 -0.068137139 0.81300002 3749699
-0.021679999 -0.068137139 0.81300002 3814722
-0.018674288 -0.068472385 0.81700003 3684156
-0.015561905 -0.068472385 0.81700003 3618363
-0.012449524 -0.068472385 0.81700003 3552570
-0.009337144 -0.068472385 0.81700003 3618113
-0.0062247622 -0.068472385 0.81700003 3748929
-0.0031123811 -0.068472385 0.81700003 3749179
0 -0.068472385 0.81700003 3618363
0.0031123811 -0.068472385 0.81700003 3749699
0.0062400005 -0.068640009 0.81900007 3815240
0.0093600005 -0.068640009 0.81900007 3486777
0.012510477 -0.068807617 0.82100004 3683906
0.015638094 -0.068807617 0.82100004 3749699
0.018765714 -0.068807617 0.82100004 3552068
0.021946667 -0.06897524 0.82300001 3618113
0.025142858 -0.069142863 0.82500005 3618113
0.028422859 -0.069478095 0.82900006 3486777
0.031657144 -0.069645718 0.83100003 3552320
0.03490667 -0.069813341 0.83300006 3355191
0.038079999 -0.069813341 0.83300006 3420984
0.041352384 -0.069980957 0.83500004 3420984
0.044640001 -0.070148572 0.83700001 3224386
0.048057146 -0.070483811 0.84100002 3420734
0.051382858 -0.070651434 0.84300005 3748175
0.05472381 -0.07081905 0.84500003 3288126
0.058080003 -0.070986666 0.84700006 2630968
0.061451431 -0.071154289 0.84900004 2499632
0.064838096 -0.071321905 0.85100001 2499884
0.068319999 -0.071573332 0.85400003 2499632
0.071740955 -0.071740955 0.85600007 2564142
0.07500191 -0.071740955 0.85600007 2170163
0.078445718 -0.071908578 0.85800004 2301222
0.081714287 -0.071908578 0.85800004 2367015
0.085180953 -0.072076187 0.86000001 2236712
0.088662863 -0.07224381 0.86200005 2236962
0.092160001 -0.072411433 0.86400002 1777960
0.095451429 -0.072411433 0.86400002 1843501
0.099085718 -0.07266286 0.86700004 2039333
0.10262477 -0.072830476 0.86900002 2170669
0.10617905 -0.072998099 0.87100005 2170669
0.11000001 -0.073333338 0.87500006 2497331
0.11372191 -0.073584758 0.87800002 2432808
0.11733334 -0.073752381 0.88000005 2302255
0.12096 -0.073920004 0.88200003 2302255
0.12474287 -0.074171431 0.88500005 2368048
0.12840381 -0.074339047 0.88700002 2236712
0.13208 -0.07450667 0.88900006 2434091
0.13622858 -0.074925721 0.89400005 2499884
0.13994667 -0.075093329 0.89600003 2434091
0.14368001 -0.075260952 0.89800006 2500134
0.14759238 -0.075512379 0.90100002 2631468
0.15186286 -0.07593143 0.90600002 2304556
0.15565714 -0.076099053 0.90800005 2567210
0.15946667 -0.076266669 0.91000003 1580579
0.16526096 -0.077356197 0.92300004 5985909
-0.22016001 -0.072240002 0.90300006 4540217
-0.21552002 -0.071840003 0.89800006 2040628
-0.21162668 -0.071680002 0.89600003 2368548
-0.20774859 -0.071520008 0.89400005 2697011
-0.20365715 -0.071280003 0.89100003 2565675
-0.1989143 -0.070800006 0.88500005 2697261
-0.19488001 -0.070560001 0.88200003 2499884
-0.19108573 -0.070400007 0.88000005 2631468
-0.18730666 -0.070239998 0.87800002 2631468
-0.18396191 -0.070239998 0.87800002 2697261
-0.18000001 -0.070000008 0.87500006 2697261
-0.17585905 -0.069679998 0.87100005 2828847
-0.17214476 -0.069520004 0.86900002 2828847
-0.16844572 -0.069360003 0.86700004 2828847
-0.16457143 -0.069120005 0.86400002 3025958
-0.16090667 -0.068960004 0.86200005 3025708
-0.15725714 -0.068799995 0.86000001 2894892
-0.15362285 -0.068640009 0.85800004 2960433
-0.1503543 -0.068640009 0.85800004 2764087
-0.14674287 -0.068480007 0.85600007 2894640
-0.14314666 -0.068319999 0.85400003 2698544
-0.13989334 -0.068319999 0.85400003 2960433
-0.13616 -0.068080001 0.85100001 2960183
-0.13260572 -0.067919999 0.84900004 3026226
-0.12937143 -0.067919999 0.84900004 3091249
-0.12554286 -0.067600004 0.84500003 3222835
-0.12232381 -0.067600004 0.84500003 3026226
-0.11910477 -0.067600004 0.84500003 3026226
-0.11588572 -0.067600004 0.84500003 2764087
-0.1124 -0.067440003 0.84300005 3157562
-0.10892952 -0.067280002 0.84100002 3157812
-0.10522286 -0.06696 0.83700001 3422017
-0.10179048 -0.066799998 0.83500004 3749699
-0.098373339 -0.066640005 0.83300006 3947078
-0.095200002 -0.066640005 0.83300006 3751232
-0.091584772 -0.066320002 0.82900006 3356224
-0.088426672 -0.066320002 0.82900006 3554891
-0.085062861 -0.066160001 0.82700002 3816775
-0.081714287 -0.066 0.82500005 3619396
-0.078190483 -0.065680005 0.82100004 3815994
-0.074880004 -0.065520003 0.81900007 4077642
-0.071760006 -0.065520003 0.81900007 4012101
-0.068640009 -0.065520003 0.81900007 3815994
-0.065360002 -0.065360002 0.81700003 3619646
-0.062247619 -0.065360002 0.81700003 3422017
-0.05913524 -0.065360002 0.81700003 3487558
-0.056022856 -0.065360002 0.81700003 3552320
-0.052910481 -0.065360002 0.81700003 3684156
-0.049798097 -0.065360002 0.81700003 3749699
-0.04657143 -0.065200008 0.81500006 3422017
-0.043466669 -0.065200008 0.81500006 3552822
-0.040361907 -0.065200008 0.81500006 3552570
-0.037257146 -0.065200008 0.81500006 3683906
-0.034152381 -0.065200008 0.81500006 3749699
-0.031047622 -0.065200008 0.81500006 3356224
-0.027942859 -0.065200008 0.81500006 3552320
-0.024777144 -0.06504 0.81300002 3618113
-0.021679999 -0.06504 0.81300002 3683386
-0.018674288 -0.065360002 0.81700003 3487029
-0.015561905 -0.065360002 0.81700003 3552570
-0.012449524 -0.065360002 0.81700003 3552320
-0.009337144 -0.065360002 0.81700003 3486527
-0.0062247622 -0.065360002 0.81700003 3486777
-0.0031123811 -0.065360002 0.81700003 3355443
0 -0.065360002 0.81700003 3290681
0.0031123811 -0.065360002 0.81700003 3422017
0.0062400005 -0.065520003 0.81900007 3683654
0.0093600005 -0.065520003 0.81900007 3683386
0.012510477 -0.065680005 0.82100004 3684156
0.015638094 -0.065680005 0.82100004 3552320
0.018765714 -0.065680005 0.82100004 3552320
0.021946667 -0.065840006 0.82300001 3486527
0.025142858 -0.066 0.82500005 3552320
0.028422859 -0.066320002 0.82900006 3420984
0.031657144 -0.066480003 0.83100003 3354941
0.034822859 -0.066480003 0.83100003 3355191
0.038079999 -0.066640005 0.83300006 3289148
0.041352384 -0.066799998 0.83500004 3223605
0.044640001 -0.06696 0.83700001 3223103
0.047942862 -0.067120008 0.83900005 3355191
0.051382858 -0.067440003 0.84300005 3880515
0.05459429 -0.067440003 0.84300005 4538191
0.058080003 -0.067759998 0.84700006 2367796
0.061451431 -0.067919999 0.84900004 2304050
0.064838096 -0.068080001 0.85100001 2697261
0.068319999 -0.068319999 0.85400003 2565425
0.071740955 -0.068480007 0.85600007 2629935
0.07500191 -0.068480007 0.85600007 2564142
0.078445718 -0.068640009 0.85800004 2432808
0.081714287 -0.068640009 0.85800004 2498351
0.085180953 -0.068799995 0.86000001 2368298
0.088662863 -0.068960004 0.86200005 2236712
0.092160001 -0.069120005 0.86400002 1975587
0.095782861 -0.069360003 0.86700004 1843501
0.099085718 -0.069360003 0.86700004 2236712
0.10262477 -0.069520004 0.86900002 2302255
0.10617905 -0.069679998 0.87100005 2366765
0.11000001 -0.070000008 0.87500006 2236462
0.11333334 -0.070000008 0.87500006 2104876
0.11733334 -0.070400007 0.88000005 2367796
0.12096 -0.070560001 0.88200003 2040878
0.12474287 -0.070800006 0.88500005 2172464
0.12840381 -0.07096 0.88700002 2368298
0.13237715 -0.071280003 0.89100003 2499884
0.13653333 -0.071680002 0.89600003 2695980
0.13994667 -0.071680002 0.89600003 2630187
0.14368001 -0.071840003 0.89800006 2696230
0.14792001 -0.072240002 0.90300006 2761773
0.15186286 -0.072480001 0.90600002 2827566
0.15565714 -0.072640002 0.90800005 2893870
0.15946667 -0.072800003 0.91000003 2498351
0.16526096 -0.073840007 0.92300004 3289130
0.16877714 -0.073840007 0.92300004 11513552
0.17322667 -0.074239999 0.92800003 12300974
-0.22483811 -0.069180958 0.90800005 8615049
-0.22016001 -0.068800002 0.90300006 2629401
-0.21552002 -0.068419054 0.89800006 2695728
-0.21162668 -0.068266667 0.89600003 2696991
-0.20774859 -0.068114288 0.89400005 2697011
-0.20320001 -0.067733333 0.88900006 2697011
-0.1989143 -0.067428574 0.88500005 2827566
-0.19488001 -0.067200005 0.88200003 2761773
-0.19152001 -0.067200005 0.88200003 2631468
-0.18773334 -0.067047618 0.88000005 2565675
-0.18396191 -0.066895239 0.87800002 2697261
-0.18000001 -0.06666667 0.87500006 2763054
-0.17585905 -0.066361912 0.87100005 2762552
-0.17214476 -0.066209525 0.86900002 2828847
-0.16844572 -0.066057146 0.86700004 2894390
-0.16457143 -0.065828577 0.86400002 2894640
-0.16090667 -0.065676197 0.86200005 2828847
-0.15725714 -0.065523811 0.86000001 2894640
-0.15362285 -0.065371424 0.85800004 2960433
-0.1503543 -0.065371424 0.85800004 2894138
-0.14708571 -0.065371424 0.85800004 2828597
-0.14348191 -0.065219052 0.85600007 2764087
-0.13989334 -0.065066665 0.85400003 2960433
-0.13616 -0.064838096 0.85100001 2960685
-0.13260572 -0.064685717 0.84900004 3025976
-0.12937143 -0.064685717 0.84900004 2764087
-0.12584001 -0.064533338 0.84700006 2763835
-0.12232381 -0.064380959 0.84500003 3026226
-0.11910477 -0.064380959 0.84500003 3092019
-0.11561143 -0.064228572 0.84300005 3091769
-0.11213334 -0.064076185 0.84100002 3157562
-0.10867048 -0.063923813 0.83900005 3026226
-0.10497143 -0.063619047 0.83500004 3553853
-0.10154667 -0.063466676 0.83300006 3947078
-0.098373339 -0.063466676 0.83300006 3750730
-0.094971426 -0.063314289 0.83100003 3750982
-0.091584772 -0.06316191 0.82900006 3553603
-0.088426672 -0.06316191 0.82900006 3814992
-0.085062861 -0.06300953 0.82700002 3881285
-0.081714287 -0.062857144 0.82500005 3815742
-0.078190483 -0.062552378 0.82100004 3946810
-0.074880004 -0.062400002 0.81900007 4077894
-0.071760006 -0.062400002 0.81900007 3750730
-0.068640009 -0.062400002 0.81900007 3488312
-0.065360002 -0.062247619 0.81700003 3226178
-0.062247619 -0.062247619 0.81700003 3421765
-0.05913524 -0.062247619 0.81700003 3290431
-0.056022856 -0.062247619 0.81700003 3355191
-0.052910481 -0.062247619 0.81700003 3224638
-0.049676195 -0.062095243 0.81500006 3356224
-0.04657143 -0.062095243 0.81500006 3290431
-0.043466669 -0.062095243 0.81500006 3159095
-0.040361907 -0.062095243 0.81500006 3356474
-0.037257146 -0.062095243 0.81500006 3356224
-0.034152381 -0.062095243 0.81500006 3486777
-0.031047622 -0.062095243 0.81500006 3617593
-0.027942859 -0.062095243 0.81500006 3617343
-0.024838097 -0.062095243 0.81500006 3552320
-0.021733334 -0.062095243 0.81500006 3552570
-0.018628573 -0.062095243 0.81500006 3355443
-0.015523811 -0.062095243 0.81500006 3159095
-0.012449524 -0.062247619 0.81700003 3486527
-0.009337144 -0.062247619 0.81700003 3486007
-0.0062247622 -0.062247619 0.81700003 3355191
-0.0031123811 -0.062247619 0.81700003 3289650
0 -0.062247619 0.81700003 3289148
0.0031123811 -0.062247619 0.81700003 3486275
0.0062400005 -0.062400002 0.81900007 3420734
0.0093600005 -0.062400002 0.81900007 3354941
0.012510477 -0.062552378 0.82100004 3552320
0.015638094 -0.062552378 0.82100004 3552068
0.018765714 -0.062552378 0.82100004 3354941
0.021946667 -0.062704764 0.82300001 3289398
0.025142858 -0.062857144 0.82500005 3157562
0.028422859 -0.06316191 0.82900006 3223355
0.031580955 -0.06316191 0.82900006 3157562
0.034822859 -0.063314289 0.83100003 3157562
0.037988573 -0.063314289 0.83100003 3223355
0.041352384 -0.063619047 0.83500004 3354171
0.044533335 -0.063619047 0.83500004 3354689
0.047828574 -0.063771427 0.83700001 3157812
0.051260952 -0.064076185 0.84100002 3224386
0.05459429 -0.064228572 0.84300005 3485773
0.058080003 -0.064533338 0.84700006 3223103
0.061451431 -0.064685717 0.84900004 2762552
0.064838096 -0.064838096 0.85100001 2499884
0.068319999 -0.065066665 0.85400003 2434091
0.071740955 -0.065219052 0.85600007 2040878
0.07500191 -0.065219052 0.85600007 2236712
0.078445718 -0.065371424 0.85800004 2367796
0.081714287 -0.065371424 0.85800004 2368048
0.085180953 -0.065523811 0.86000001 1909044
0.088662863 -0.065676197 0.86200005 2236712
0.092160001 -0.065828577 0.86400002 2039333
0.095782861 -0.066057146 0.86700004 1843751
0.09931428 -0.066209525 0.86900002 2236712
0.10286096 -0.066361912 0.87100005 2170669
0.10617905 -0.066361912 0.87100005 2104876
0.10974857 -0.066514291 0.87300003 1843501
0.11333334 -0.06666667 0.87500006 2105126
0.11733334 -0.067047618 0.88000005 2236210
0.12096 -0.067200005 0.88200003 2368048
0.12474287 -0.067428574 0.88500005 1975087
0.12869334 -0.067733333 0.88900006 2368048
0.13282286 -0.068114288 0.89400005 2367796
0.13653333 -0.068266667 0.89600003 2236462
0.13994667 -0.068266667 0.89600003 2368048
0.14368001 -0.068419054 0.89800006 2631218
0.14792001 -0.068800002 0.90300006 2499884
0.15219811 -0.069180958 0.90800005 2697261
0.1565143 -0.069561906 0.91300005 2697261
0.16086857 -0.069942862 0.91800004 3025206
0.16526096 -0.07032381 0.92300004 1249288
0.16969144 -0.070704766 0.92800003 7240615
0.17322667 -0.070704766 0.92800003 3620650
-0.22483811 -0.065721907 0.90800005 8551032
-0.22016001 -0.065360002 0.90300006 920852
-0.21624 -0.065215237 0.90100002 2565425
-0.21209906 -0.064998098 0.89800006 2499884
-0.20705143 -0.064491428 0.89100003 2631218
-0.20274286 -0.064201906 0.88700002 2631218
-0.1989143 -0.064057142 0.88500005 2697011
-0.19488001 -0.063840002 0.88200003 2499884
-0.19108573 -0.063695244 0.88000005 2565675
-0.18730666 -0.06355048 0.87800002 1909544
-0.18396191 -0.06355048 0.87800002 2631218
-0.18000001 -0.06333334 0.87500006 2827314
-0.17585905 -0.063043818 0.87100005 2762552
-0.17214476 -0.062899046 0.86900002 2828597
-0.16844572 -0.062754288 0.86700004 2698294
-0.16457143 -0.062537141 0.86400002 2698294
-0.16090667 -0.06239238 0.86200005 2698042
-0.15725714 -0.062247619 0.86000001 2894390
-0.15362285 -0.062102858 0.85800004 2894390
-0.1503543 -0.062102858 0.85800004 2894390
-0.14708571 -0.062102858 0.85800004 2960433
-0.14348191 -0.061958101 0.85600007 2764087
-0.13989334 -0.061813332 0.85400003 2960433
-0.13616 -0.061596192 0.85100001 2764337
-0.13260572 -0.061451431 0.84900004 2895923
-0.12937143 -0.061451431 0.84900004 3025976
-0.12584001 -0.061306667 0.84700006 3025976
-0.12261333 -0.061306667 0.84700006 2960685
-0.11910477 -0.061161906 0.84500003 2960183
-0.11561143 -0.061017144 0.84300005 3157562
-0.11186668 -0.060727622 0.83900005 2894640
-0.10841143 -0.060582858 0.83700001 3486777
-0.10497143 -0.060438097 0.83500004 3487810
-0.10154667 -0.060293339 0.83300006 3553603
-0.098373339 -0.060293339 0.83300006 3619396
-0.094971426 -0.060148574 0.83100003 3946558
-0.091584772 -0.060003813 0.82900006 3815492
-0.088213332 -0.059859049 0.82700002 3815492
-0.084857151 -0.059714291 0.82500005 3749699
-0.081516191 -0.059569523 0.82300001 3552320
-0.078190483 -0.059424765 0.82100004 3618363
-0.075062856 -0.059424765 0.82100004 3552320
-0.071760006 -0.059280004 0.81900007 3749447
-0.068640009 -0.059280004 0.81900007 3290431
-0.065360002 -0.05913524 0.81700003 3290431
-0.062247619 -0.05913524 0.81700003 3486275
-0.05913524 -0.05913524 0.81700003 3354941
-0.056022856 -0.05913524 0.81700003 3223605
-0.052910481 -0.05913524 0.81700003 3158845
-0.049676195 -0.058990479 0.81500006 3486527
-0.04657143 -0.058990479 0.81500006 3420734
-0.043466669 -0.058990479 0.81500006 3355191
-0.040361907 -0.058990479 0.81500006 3289398
-0.037257146 -0.058990479 0.81500006 3420734
-0.034152381 -0.058990479 0.81500006 3420734
-0.031047622 -0.058990479 0.81500006 3223605
-0.027942859 -0.058990479 0.81500006 3354941
-0.024838097 -0.058990479 0.81500006 3354689
-0.021733334 -0.058990479 0.81500006 3223355
-0.018628573 -0.058990479 0.81500006 3224888
-0.015523811 -0.058990479 0.81500006 3289148
-0.012449524 -0.05913524 0.81700003 3355191
-0.009337144 -0.05913524 0.81700003 3289148
-0.0062247622 -0.05913524 0.81700003 3289148
-0.0031123811 -0.05913524 0.81700003 3223605
0 -0.05913524 0.81700003 3354941
0.0031123811 -0.05913524 0.81700003 3354941
0.0062400005 -0.059280004 0.81900007 3354941
0.009382857 -0.059424765 0.82100004 3224386
0.012510477 -0.059424765 0.82100004 3288896
0.015638094 -0.059424765 0.82100004 3354187
0.018765714 -0.059424765 0.82100004 3027259
0.021946667 -0.059569523 0.82300001 3289398
0.025142858 -0.059714291 0.82500005 2961466
0.028422859 -0.060003813 0.82900006 3288378
0.031580955 -0.060003813 0.82900006 3288378
0.034739047 -0.060003813 0.82900006 3223103
0.037988573 -0.060148574 0.83100003 3157562
0.041253336 -0.060293339 0.83300006 3157562
0.044533335 -0.060438097 0.83500004 3223355
0.047828574 -0.060582858 0.83700001 2764087
0.051139049 -0.060727622 0.83900005 3157562
0.05459429 -0.061017144 0.84300005 3551550
0.058080003 -0.061306667 0.84700006 3946056
0.061596192 -0.061596192 0.85100001 2302784
0.064838096 -0.061596192 0.85100001 2631218
0.068319999 -0.061813332 0.85400003 2499632
0.071740955 -0.061958101 0.85600007 2499632
0.07500191 -0.061958101 0.85600007 2434091
0.078445718 -0.062102858 0.85800004 2367796
0.081714287 -0.062102858 0.85800004 1909294
0.085180953 -0.062247619 0.86000001 2368048
0.088662863 -0.06239238 0.86200005 1975087
0.092160001 -0.062537141 0.86400002 2236712
0.095782861 -0.062754288 0.86700004 2302755
0.09931428 -0.062899046 0.86900002 2432808
0.10286096 -0.063043818 0.87100005 2432808
0.10617905 -0.063043818 0.87100005 2302255
0.10974857 -0.063188568 0.87300003 2368048
0.11398096 -0.063695244 0.88000005 2564644
0.11733334 -0.063695244 0.88000005 2368048
0.12096 -0.063840002 0.88200003 2368298
0.12474287 -0.064057142 0.88500005 2368048
0.12840381 -0.064201906 0.88700002 2302255
0.13282286 -0.064708568 0.89400005 2367796
0.13622858 -0.064708568 0.89400005 2433839
0.13994667 -0.064853333 0.89600003 2499632
0.14368001 -0.064998098 0.89800006 2499632
0.14841142 -0.065577142 0.90600002 2631468
0.15219811 -0.065721907 0.90800005 2499884
0.1565143 -0.066083811 0.91300005 2762023
0.16086857 -0.066445716 0.91800004 2697261
0.16526096 -0.06680762 0.92300004 922401
0.16969144 -0.067169525 0.92800003 7564930
0.17322667 -0.067169525 0.92800003 5855550
-0.2295543 -0.062605716 0.91300005 8946815
-0.22533333 -0.062400002 0.91000003 6250826
-0.22089143 -0.062125716 0.90600002 1644575
-0.21672001 -0.061920006 0.90300006 2631218
-0.21280761 -0.061782859 0.90100002 2499884
-0.20705143 -0.061097141 0.89100003 2761773
-0.20274286 -0.060822859 0.88700002 2697261
-0.1989143 -0.060685717 0.88500005 2630968
-0.19488001 -0.060480002 0.88200003 2827314
-0.19108573 -0.060342859 0.88000005 2761521
-0.18730666 -0.060205717 0.87800002 2696230
-0.18396191 -0.060205717 0.87800002 2499884
-0.18000001 -0.060000002 0.87500006 2238257
-0.17585905 -0.05972572 0.87100005 2632501
-0.17214476 -0.05958857 0.86900002 2894390
-0.16844572 -0.059451431 0.86700004 2697261
-0.16457143 -0.059245713 0.86400002 2894390
-0.16090667 -0.059108574 0.86200005 2894138
-0.15725714 -0.058971431 0.86000001 2960183
-0.15362285 -0.058834285 0.85800004 3026226
-0.1503543 -0.058834285 0.85800004 2894640
-0.14674287 -0.058697145 0.85600007 2960685
-0.14314666 -0.058560003 0.85400003 3092019
-0.13940191 -0.058354285 0.85100001 3026226
-0.13616 -0.058354285 0.85100001 3026226
-0.13260572 -0.058217146 0.84900004 2895923
-0.12937143 -0.058217146 0.84900004 2961466
-0.12584001 -0.058080003 0.84700006 3091769
-0.12232381 -0.05794286 0.84500003 2830382
-0.11882287 -0.057805717 0.84300005 2699834
-0.11533715 -0.057668574 0.84100002 3093052
-0.1116 -0.057394285 0.83700001 3487029
-0.10815238 -0.057257146 0.83500004 3815742
-0.10472 -0.057120007 0.83300006 3683654
-0.10154667 -0.057120007 0.83300006 3618113
-0.098137148 -0.056982856 0.83100003 3553603
-0.094742857 -0.056845717 0.82900006 3488060
-0.09136381 -0.056708574 0.82700002 3618363
-0.088213332 -0.056708574 0.82700002 3749699
-0.084857151 -0.056571428 0.82500005 3683386
-0.081516191 -0.056434285 0.82300001 3683386
-0.078190483 -0.056297146 0.82100004 3617845
-0.075062856 -0.056297146 0.82100004 3683136
-0.071935244 -0.056297146 0.82100004 3552068
-0.068640009 -0.056160007 0.81900007 3552320
-0.065520003 -0.056160007 0.81900007 3158845
-0.062247619 -0.056022856 0.81700003 3027007
-0.05913524 -0.056022856 0.81700003 3354689
-0.056022856 -0.056022856 0.81700003 3289148
-0.052910481 -0.056022856 0.81700003 3157310
-0.049798097 -0.056022856 0.81700003 3093052
-0.04657143 -0.055885717 0.81500006 3157562
-0.043466669 -0.055885717 0.81500006 3355191
-0.040361907 -0.055885717 0.81500006 3355191
-0.037165716 -0.055748574 0.81300002 3223103
-0.03406857 -0.055748574 0.81300002 3092019
-0.031047622 -0.055885717 0.81500006 3157812
-0.027942859 -0.055885717 0.81500006 3223605
-0.024777144 -0.055748574 0.81300002 3157562
-0.021679999 -0.055748574 0.81300002 3223355
-0.018628573 -0.055885717 0.81500006 3223605
-0.015523811 -0.055885717 0.81500006 3223355
-0.012419049 -0.055885717 0.81500006 3223355
-0.009337144 -0.056022856 0.81700003 3289148
-0.0062400005 -0.056160007 0.81900007 3485505
-0.0031200002 -0.056160007 0.81900007 3223605
0 -0.056160007 0.81900007 3485505
0.0031200002 -0.056160007 0.81900007 3354421
0.0062400005 -0.056160007 0.81900007 3355191
0.0093600005 -0.056160007 0.81900007 3354689
0.012510477 -0.056297146 0.82100004 3354171
0.015638094 -0.056297146 0.82100004 3223103
0.018765714 -0.056297146 0.82100004 3092019
0.021946667 -0.056434285 0.82300001 3091769
0.025203809 -0.056708574 0.82700002 3025976
0.028354287 -0.056708574 0.82700002 3091517
0.031580955 -0.056845717 0.82900006 3092019
0.034739047 -0.056845717 0.82900006 2961466
0.037988573 -0.056982856 0.83100003 3025976
0.041253336 -0.057120007 0.83300006 3222585
0.044533335 -0.057257146 0.83500004 3288378
0.047828574 -0.057394285 0.83700001 3223605
0.051139049 -0.057531431 0.83900005 3354689
0.054464761 -0.057668574 0.84100002 3355191
0.058080003 -0.058080003 0.84700006 3552068
0.061451431 -0.058217146 0.84900004 3223103
0.064838096 -0.058354285 0.85100001 2827566
0.068319999 -0.058560003 0.85400003 2629935
0.071573332 -0.058560003 0.85400003 2695728
0.07500191 -0.058697145 0.85600007 2695980
0.078445718 -0.058834285 0.85800004 2630187
0.081714287 -0.058834285 0.85800004 2564394
0.085180953 -0.058971431 0.86000001 2368298
0.088662863 -0.059108574 0.86200005 2106923
0.091946669 -0.059108574 0.86200005 2106923
0.095782861 -0.059451431 0.86700004 2368548
0.09931428 -0.05958857 0.86900002 2104876
0.10262477 -0.05958857 0.86900002 2432808
0.10617905 -0.05972572 0.87100005 2236712
0.10949715 -0.05972572 0.87100005 2236712
0.11372191 -0.060205717 0.87800002 2170919
0.11733334 -0.060342859 0.88000005 2368298
0.12068572 -0.060342859 0.88000005 2434091
0.12432001 -0.060480002 0.88200003 2368298
0.12840381 -0.060822859 0.88700002 2433839
0.13237715 -0.061097141 0.89100003 2499884
0.13622858 -0.061302859 0.89400005 2434091
0.13994667 -0.061440002 0.89600003 2304050
0.14368001 -0.061577149 0.89800006 2565675
0.14841142 -0.062125716 0.90600002 2631218
0.15219811 -0.062262863 0.90800005 2828077
0.1565143 -0.062605716 0.91300005 2763306
0.16086857 -0.06294857 0.91800004 2959663
0.16561906 -0.063428573 0.92500007 2302755
0.16969144 -0.063634284 0.92800003 4537137
0.17322667 -0.063634284 0.92800003 9406339
-0.2295543 -0.059127621 0.91300005 8420986
-0.22533333 -0.058933333 0.91000003 4803373
-0.22137906 -0.058803812 0.90800005 1580331
-0.21672001 -0.058480002 0.90300006 2304050
-0.21209906 -0.058156192 0.89800006 2172464
-0.20774859 -0.057897147 0.89400005 2697261
-0.20320001 -0.057573337 0.88900006 2697261
-0.19936381 -0.057443812 0.88700002 2894390
-0.19488001 -0.057120003 0.88200003 2565425
-0.19065143 -0.056860954 0.87800002 2631218
-0.18730666 -0.056860954 0.87800002 2697513
